272.3445,274.297,275.3434,275.3434,275.4084,275.4084,275.633,275.4807,275.4807,275.6228,275.6228,275.9666,275.9666,275.7954,275.7954,276.2042,276.2042,276.5602,276.5602,276.29,276.29,275.5798,275.699,275.699,277.4649,277.4649,275.7602,275.3788,277.1117,275.4861,275.4861,275.4861,275.5847,275.045,275.045,275.2928,275.2928,275.2928,275.2928,275.2928,274.3424,274.3424,273.6986,273.6986,273.7842,273.7842,273.7842,272.772,272.772,272.772,271.1367,271.1367,271.1367,271.1367,269.5728,264.4947,264.5597,262.3962,262.2143,254.9191,248.4443,236.8548,228.5008,217.2678,204.6709,195.6661,190.4721,185.9017,183.4597,183.7559,183.2912,182.7565,181.2048,182.7135,182.5139,180.4588,182.2352,180.6479,182.2214,180.4927,180.3208,179.3087,181.784,180.3455,182.2601,180.5636,182.3069,180.3788,180.3832,180.2668,180.4825,186.4407,192.8057,200.9707,216.7869,230.1269,244.9732,254.016,256.596,265.113,263.5861,261.4231,255.0241,259.3076,267.3701,268.2733,268.7148,270.1353,269.6345,271.4392,271.4392,271.2534,272.2836,272.2836,272.8115,272.8115,273.3568,272.5035,272.5035,272.5035,273.5276,273.5138,274.225,274.6386,274.6386,272.18,272.18,271.2964
276.8012,275.3395,275.4682,275.4682,275.4084,275.4084,275.633,275.6617,275.6617,275.6228,275.6228,276.0078,275.9666,276.0549,276.0549,277.6145,277.6145,276.8139,276.8139,276.9696,276.9696,276.3593,277.6465,277.6465,278.6418,278.6418,277.257,277.257,277.2157,275.8242,275.8242,275.8242,276.6258,275.045,275.045,275.2928,275.2928,275.2928,275.2928,275.2928,274.3424,274.3424,273.6986,273.6986,273.7842,273.7842,273.7842,272.772,272.772,272.772,271.1367,271.1367,271.1367,271.1367,269.2909,270.011,269.4364,267.1045,264.1715,282.4022,250.1896,252.6618,247.8772,234.5042,224.5822,216.9151,205.8634,196.8466,191.9943,189.0598,187.317,186.189,185.4772,184.9955,183.3542,182.7922,182.2119,183.2926,182.8735,180.4796,182.1288,181.8357,179.3373,180.4006,180.5283,180.5982,182.3061,180.3347,181.8259,180.1239,180.5843,182.8174,182.8581,185.8309,192.9358,206.4284,225.0372,238.0186,254.316,253.6125,259.25,253.6192,262.3081,265.1796,269.0564,270.8039,271.3547,272.3973,271.6119,269.7406,269.7406,271.5146,271.9044,271.9044,272.8115,272.8115,273.3568,274.1437,274.1437,274.1437,273.6488,273.6488,274.3083,274.8001,274.8001,272.5867,272.5867,271.3414
278.1634,276.7511,275.5062,275.5062,276.0421,277.3909,276.094,277.079,277.079,275.0121,277.3464,278.8141,278.8141,278.7072,278.7072,276.2453,276.2453,277.2077,277.2077,277.4996,277.4996,276.6006,278.1009,278.1009,279.1828,279.1828,278.0857,278.0857,278.1951,277.8563,277.8563,277.8563,277.445,277.096,277.096,276.2714,276.2714,276.2714,276.2714,276.2714,275.1494,275.1494,274.2655,273.6581,273.4599,273.4599,273.4599,272.984,272.755,272.5466,272.0818,272.0818,271.4939,271.4939,270.0669,270.0669,270.0669,266.1994,261.8812,271.1989,271.1989,259.4876,255.8881,253.1557,246.1873,238.2142,227.24,217.5175,209.5495,202.6563,199.5699,197.7365,196.6362,194.6855,193.3798,191.4342,189.7428,188.0824,187.9107,186.9089,185.1539,184.1725,184.4303,182.7592,183.2814,182.863,180.9328,180.2822,178.8315,180.1944,181.9178,180.4537,182.3193,183.183,184.9337,191.743,204.7772,225.2086,238.8745,238.8745,242.2828,257.1509,261.5248,264.8884,268.3279,269.7523,271.51,269.9565,271.5883,271.5505,271.5505,271.6214,272.1818,272.1818,272.7411,272.7411,273.0181,272.331,272.331,272.331,273.7535,273.7535,273.5858,274.5298,274.5298,271.9083,271.9083,272.4694
278.1634,276.7511,275.5062,275.5062,276.0421,277.3909,276.094,277.079,277.079,275.0121,277.3464,278.8141,278.8141,278.7072,278.7072,276.2453,276.2453,277.2077,277.2077,277.4996,277.4996,276.6006,278.1009,278.1009,279.1828,279.1828,278.0857,278.0857,278.1951,277.8563,277.8563,277.8563,277.445,277.096,277.096,276.2714,276.2714,276.2714,276.2714,276.2714,275.1494,275.1494,274.2655,273.6581,273.4599,273.4599,273.4599,272.984,272.755,272.5466,272.0818,272.0818,271.6884,271.6884,269.6129,269.6129,266.0926,266.0926,266.0926,264.2116,264.2116,265.0463,265.0463,265.0463,265.0463,256.7563,240.8344,240.0538,230.5383,226.3052,221.0522,220.7326,220.6851,218.4763,215.2231,210.4181,206.0621,202.785,201.3693,198.8502,197.0836,196.3059,194.8403,191.8126,188.7782,186.6632,183.9727,182.9921,180.3111,181.6854,179.4719,180.4136,180.7127,182.478,181.1935,184.2422,192.1997,217.3091,237.5205,238.8745,237.5205,249.5371,256.5488,265.3874,268.8609,272.0832,271.1882,269.2587,269.7698,269.6415,269.6415,271.3889,272.0453,272.0453,273.2303,273.2303,271.4954,274.4279,274.4279,274.4279,273.9258,273.9258,273.4878,272.5885,272.5885,274.6296,274.6296,272.189
276.1259,276.1187,275.7991,275.7991,276.1399,276.1399,276.8992,276.8992,277.2484,277.2484,277.6587,278.2178,278.2178,278.1692,278.1692,277.7225,277.7225,277.2159,277.2159,277.8606,277.8606,278.0176,278.1176,278.1176,279.7234,279.7234,277.9216,277.9267,278.2966,278.3206,278.3206,278.3206,277.3714,277.9074,277.9074,276.5721,276.2714,276.2714,276.2714,276.2714,274.9386,274.9386,274.3572,273.8318,273.736,273.736,273.736,273.736,272.2499,272.2499,272.2151,272.2151,271.6347,271.6347,269.6828,269.7192,266.5545,266.5545,266.5545,265.1995,265.1995,266.616,266.616,257.5853,257.5853,248.9999,254.4489,254.4489,258.2816,241.3424,243.9996,238.2659,243.9244,245.1567,240.8548,237.1683,229.5056,224.7208,222.96,217.3534,216.5439,221.0769,217.1502,210.3653,204.3795,197.9893,193.3176,190.0656,185.6868,184.8352,182.8407,183.003,182.7595,182.5374,180.4217,179.9709,185.4975,192.0621,219.8277,238.7809,241.7019,246.0926,253.8331,263.7585,269.0695,270.9523,269.4481,268.6307,270.36,269.0384,269.0384,270.5465,272.0928,272.0928,273.2303,273.2303,271.4954,274.4279,274.4279,274.4279,273.3939,273.3939,272.9869,272.6053,272.6053,272.8864,272.8864,272.5994
276.1259,276.1187,275.6297,275.6297,276.1399,276.0985,276.8992,276.8992,277.2484,277.2484,277.6587,278.3922,278.3922,278.1692,278.1449,278.1791,278.1791,277.8249,277.8249,278.3819,278.3819,278.0176,278.1176,278.1176,279.7234,279.7234,277.9216,277.9267,278.2966,278.3206,278.3206,278.3206,277.3714,277.9074,277.9074,275.6044,275.6044,275.6044,275.6044,275.6044,275.2122,274.3343,274.9537,274.9053,273.736,273.736,273.736,272.2499,272.2499,272.2499,272.2161,272.2456,272.2456,272.2456,271.0879,268.563,267.1032,267.1032,267.1032,266.7928,266.7928,267.1313,267.1313,257.5853,257.5853,262.492,262.1143,262.1143,261.4033,264.3056,261.4033,262.9265,262.9265,259.4074,259.4074,262.532,249.6761,244.866,243.5561,233.8588,237.5073,242.8069,240.3365,229.9455,223.8204,221.673,214.0213,205.4672,199.7061,195.3231,191.9054,187.5129,184.3988,183.5228,181.1272,180.4706,181.648,183.7943,191.2315,233.9165,230.064,230.064,230.064,260.5137,266.855,269.5978,268.5144,270.5187,268.3607,268.8562,268.8562,270.3112,271.6298,271.6298,272.4364,272.4364,272.5991,274.4279,274.4279,274.4279,273.3939,273.3939,272.9869,272.6053,272.6053,272.8864,272.8864,272.5683
275.3923,275.3923,275.6504,275.6504,276.4494,276.4494,278.0558,277.9736,276.6643,277.049,277.849,276.9584,276.9584,278.3556,278.3772,278.1117,278.1117,278.332,278.332,278.7296,278.7296,278.758,278.6631,278.6631,277.7642,277.7642,278.5516,278.5516,278.8458,278.3978,278.3978,278.3978,278.6835,277.9074,277.9074,275.6044,275.6044,275.6044,275.6044,275.6044,275.2122,274.3343,274.9537,274.9053,273.736,273.736,273.736,272.2499,272.2499,272.2499,272.2161,272.2456,272.2456,272.2456,271.0879,268.563,267.1032,268.375,268.375,266.8415,266.8415,267.7882,267.7882,263.8562,263.8562,263.8562,264.4372,264.4372,264.3056,264.3056,265.1317,262.9265,262.9265,265.6565,265.6565,263.6017,263.6017,263.6017,257.4688,252.948,252.948,257.4688,257.4688,247.9192,239.1921,244.6379,239.8506,228.0914,221.8757,218.8556,210.2568,200.6607,192.5438,187.153,183.7326,181.1705,182.404,180.8887,187.1638,228.4502,228.4502,228.4502,230.064,230.064,263.8078,265.1343,268.9453,270.8176,267.3103,268.8562,268.8562,270.3112,271.6298,271.6298,272.4364,272.4364,272.5991,272.0481,272.0481,272.0481,273.5854,273.5467,273.2732,273.1868,273.1868,272.3621,272.3621,272.3611
275.3923,275.3923,276.2086,276.2086,276.4494,276.4494,278.0558,277.9736,276.6643,277.049,277.849,276.9584,276.9584,278.3556,278.3772,278.1117,278.1117,278.332,278.332,278.7296,278.7296,278.758,278.6631,278.6631,278.5849,278.5849,278.5401,278.5401,278.8773,280.2042,280.2042,280.2042,278.9631,278.0321,278.0321,276.5939,275.4745,275.4745,275.4745,275.7516,275.6244,275.6244,275.7299,275.5823,274.6302,274.6302,274.6302,273.5726,273.5726,273.5726,272.8541,272.8541,272.09,272.09,271.0413,271.0413,271.4465,269.0044,266.8911,266.8702,266.8702,269.466,267.3801,262.6662,262.6662,264.5749,266.497,266.497,268.0877,266.0037,265.3868,265.3039,266.2884,266.4455,266.4455,266.7921,263.5564,264.3812,263.3649,261.9896,261.9896,262.0255,259.3699,247.9645,256.5866,256.4794,251.689,251.689,246.3184,243.3449,232.2471,223.164,209.2057,196.4197,187.3455,184.1421,182.7924,180.7404,197.2568,228.4502,228.4502,228.4502,228.4502,228.4497,253.1271,260.3288,266.3262,267.4749,266.3654,264.6922,264.6922,269.4327,271.5284,271.5284,272.1579,272.1579,272.498,274.2827,274.2827,274.2827,273.8227,273.8227,273.6656,272.936,272.936,272.541,272.541,272.144
276.0321,276.0321,277.5136,277.5136,277.4535,277.4535,277.9895,277.9895,278.1389,278.1389,278.0897,278.4258,278.4258,278.7609,278.7609,281.0076,281.0076,279.921,279.921,280.1086,280.1086,282.1354,279.6279,279.6279,278.3323,278.3323,279.9707,278.9762,278.5747,278.5682,278.5682,278.5682,278.2673,278.2673,278.2673,277.6693,275.7079,275.2979,275.2979,275.3951,276.6987,276.6987,275.875,275.5832,274.6141,274.6141,274.6141,273.9188,273.9188,273.9188,272.7266,272.7266,271.6917,271.6917,272.2553,272.2553,271.4465,269.0044,266.8911,266.8702,266.8702,269.466,267.3801,262.6662,262.6662,264.5749,266.497,266.497,268.0877,266.0037,265.3868,265.3039,266.2884,266.4455,266.4455,266.7921,263.5564,264.3812,263.3649,261.9896,261.9896,262.0255,259.3699,259.3699,260.3465,260.3465,261.4842,261.4842,261.4815,261.4815,261.4815,244.6202,230.9036,216.1712,200.7734,192.6462,187.1794,183.1751,228.4502,228.4502,228.4502,228.4502,228.4502,228.4497,238.2365,255.6913,261.7632,262.7045,258.9261,263.6468,263.6468,268.3155,271.3456,271.3456,272.1588,272.1588,270.666,274.3299,274.3299,274.3299,273.5096,273.5096,273.1981,273.9162,273.9162,272.1141,272.1141,274.3037
274.6351,276.0352,277.1196,277.1196,278.3274,278.8014,277.523,278.0426,278.617,278.9216,278.6996,280.1658,280.1658,278.7433,278.9474,281.0076,281.0076,279.921,279.921,280.1086,280.1086,282.1354,282.1354,282.1354,278.2189,278.2189,281.155,278.7864,279.4868,277.5875,279.7804,279.7804,277.5074,279.0272,279.0272,278.1355,277.4099,275.4247,275.4247,278.0024,276.6987,276.6987,275.8845,275.4878,274.3295,274.3295,274.3295,274.2525,274.2525,274.2525,272.4024,272.4024,272.8189,272.8189,272.5175,272.5175,266.7505,266.7505,266.7505,268.3777,268.3777,268.4433,268.4433,268.1053,268.1053,267.3668,266.3732,266.3732,267.3796,267.3796,267.3796,267.4987,267.4987,268.8667,268.8667,267.2918,267.2918,267.2918,267.0149,266.1544,266.1544,265.4083,266.5202,266.5202,261.9776,261.9776,264.025,264.025,264.2433,264.2433,264.2433,254.5022,254.5022,238.8132,232.9167,219.4614,205.8145,207.3514,228.4502,228.4502,228.4502,228.4502,228.4502,228.4502,228.4497,245.0112,255.7333,258.572,254.6449,259.8513,259.8513,266.9432,271.4446,271.4446,272.1588,272.1588,270.666,274.3299,274.3299,274.3299,272.533,272.5606,272.7817,272.0237,272.0237,272.2088,272.2088,274.2137
278.0149,277.3334,278.4246,278.4246,277.8887,278.1643,276.8214,276.257,279.7472,281.2529,280.6266,278.6864,278.6864,280.5263,280.7596,281.1386,281.1386,280.2388,280.2388,281.088,281.088,282.1354,282.1354,282.1354,278.2189,278.2189,281.155,278.7864,279.4868,277.5875,279.7804,279.7804,277.5074,279.0272,279.0272,278.1355,277.4099,275.4247,275.4247,278.0024,276.6987,276.6987,275.8845,275.4878,274.3295,274.3295,274.3295,274.2525,274.2525,274.2525,272.4024,272.4024,272.216,272.216,270.1313,271.9616,269.1089,269.1089,269.1089,266.6309,266.6309,268.4433,268.4433,268.8073,268.8073,267.9358,266.1524,266.1524,267.3333,267.3333,267.3333,267.6637,267.6637,267.1532,267.1532,267.2441,267.2441,267.2441,267.9594,268.2409,268.2409,265.4083,267.8907,267.8907,263.304,263.304,262.3563,262.3563,264.5664,264.5664,263.8085,278.9027,278.9027,255.9879,255.8653,259.0258,232.2199,228.4502,228.4502,228.4502,228.4502,228.4502,228.4502,228.4502,228.4502,230.7117,247.0521,249.9959,261.7258,265.8062,265.8062,267.3375,271.5266,271.5266,271.8527,271.8527,272.1962,271.5581,271.5581,271.5581,272.533,272.205,272.6452,272.8551,272.8551,271.5578,271.5578,272.3767
279.9956,278.5955,279.6123,279.6123,279.6123,277.8826,278.1148,278.2061,278.9477,278.9477,280.7155,279.2387,279.2387,280.6995,280.6995,280.5195,280.5195,280.7601,280.7601,281.2616,280.5568,280.5568,282.1354,282.1354,281.3461,280.4907,279.687,279.9707,279.2466,278.8097,279.5464,279.5464,278.427,278.2673,277.8665,277.8781,278.0024,278.0024,278.0024,276.7136,275.9248,275.9248,275.9248,275.9455,273.5636,273.5636,273.5636,273.5636,273.5636,273.5636,271.8071,271.8071,272.216,272.216,270.1313,271.9616,269.1089,269.065,269.065,268.5088,268.5088,268.4433,268.4433,268.6071,268.6071,268.3244,266.102,266.102,267.2701,267.2701,267.7398,267.4744,267.4744,266.8809,266.8809,267.5311,267.5311,267.5311,267.8771,268.8269,268.8269,268.4897,268.4897,268.4897,265.2886,265.2886,265.1078,265.1078,267.4077,267.4077,267.4077,267.6994,267.6994,260.4236,290.9858,265.2253,265.2253,228.4502,228.4502,228.4502,228.4502,228.4502,228.4502,228.4502,215.3003,217.1349,233.5089,252.0508,261.2698,267.5692,267.5692,268.8666,271.6374,271.6374,271.8527,271.8527,272.1962,271.5581,271.5581,271.5581,272.533,272.205,272.6452,272.8551,272.8551,271.5578,271.5578,270.3528
279.9956,278.5955,279.6123,279.6123,279.6123,277.8826,278.1148,278.2061,278.9477,278.9477,280.7155,279.2387,279.2387,280.6995,280.6995,280.5195,280.5195,280.7601,280.7601,281.2616,280.5568,280.5568,280.5568,280.5568,281.8986,281.8986,280.2105,280.2105,279.2318,278.1498,278.4348,278.4348,278.6842,278.6842,279.6444,277.8548,277.8548,277.8548,277.8548,276.7136,276.9512,276.9512,276.4065,276.1675,274.9818,274.9818,274.9818,273.3536,273.3536,273.3536,272.7412,272.7412,271.0443,271.0443,273.3735,273.3735,269.6084,269.6439,269.6084,268.177,268.177,268.7748,268.7748,268.7748,268.7748,268.5825,268.3877,268.3877,268.3699,268.3699,268.3699,267.8609,267.8609,266.9842,266.9842,267.5988,267.5988,267.5988,267.8947,268.7632,268.7632,268.2397,268.2397,268.2397,266.8207,266.8207,266.961,266.961,268.6188,268.6188,269.845,267.6994,267.6994,279.7825,279.7825,266.433,266.433,235.9174,228.4502,228.4502,228.4502,228.4502,228.4502,228.4502,192.0998,201.1796,222.1042,242.3872,255.965,265.5123,265.5123,269.7186,271.7477,271.7477,271.5831,271.5831,272.1707,272.5647,272.5647,272.5647,272.3315,272.3681,273.1574,273.2202,273.2202,272.0374,272.0374,269.8021
279.5014,279.5014,279.6123,279.6123,279.6123,279.0913,280.6635,280.6635,278.5002,278.5002,279.4396,280.3601,280.0598,279.4414,279.4414,281.631,281.9541,281.4719,281.2616,281.2616,281.2616,280.5568,280.6915,280.6915,281.8986,281.8986,280.1902,280.1902,279.9485,278.259,278.9336,278.9336,278.6842,278.6842,277.1652,277.8548,277.8548,277.8548,277.8548,277.8548,276.7912,276.7912,276.2077,276.1675,275.2333,275.2333,275.2333,273.6248,273.6772,273.6772,272.9897,272.9897,273.2469,273.2469,273.3735,273.3735,269.9698,269.9698,269.9698,268.5727,268.5727,268.7114,268.7114,268.7114,268.7114,268.8405,268.7683,268.7683,268.4787,268.4787,268.4787,268.1086,268.1086,267.0362,267.0362,268.0499,268.0499,268.0499,267.7235,266.825,266.825,268.6762,268.6762,268.6762,268.0609,268.0609,268.4804,268.4804,269.0706,269.0706,269.016,274.1808,274.1808,268.5792,268.5792,264.5592,255.2261,255.2261,245.2228,239.2462,230.8024,228.4502,228.4502,186.19,183.7092,191.1707,204.5441,225.5272,246.3648,260.1345,260.1345,268.197,269.8961,268.9935,269.9586,269.9586,273.1088,272.0123,272.0123,272.0123,272.0123,272.7881,272.7881,273.534,273.534,267.9095,267.9095,270.8274
279.5014,279.5014,279.6123,279.6123,279.5562,279.5562,280.6635,280.6635,278.8392,278.8392,279.4407,280.3601,280.0598,281.7015,281.7015,281.631,281.9541,282.0949,281.4487,281.2616,281.2616,280.6915,280.6915,280.6915,281.8986,281.8986,281.8062,280.2944,280.2944,280.2944,278.6532,278.6532,279.9013,278.9079,278.9079,277.8548,277.8548,277.8548,277.8548,277.8548,276.3111,276.3111,275.674,275.8319,275.5907,275.5907,275.5907,273.5725,273.5725,273.5725,273.4949,273.4949,272.1906,272.1906,273.3735,273.3735,270.3584,270.3584,270.3584,269.2836,269.2836,268.3837,268.3837,268.3837,268.3837,268.806,269.208,269.208,268.9343,268.9343,268.9343,268.5284,268.662,267.2078,267.2078,268.1858,268.1858,268.1858,267.8713,268.6345,268.6345,268.857,268.857,268.857,269.3181,266.7729,270.1558,270.1558,269.6734,269.6734,269.3011,269.459,269.459,268.5792,268.5792,269.8724,255.2261,255.2261,255.2261,255.2261,255.2261,208.4001,185.3368,181.9429,181.563,184.5377,192.7888,207.299,227.7805,250.9766,262.9612,269.0349,269.8961,268.9935,269.9586,269.9586,273.1088,272.0123,272.0123,272.0123,272.8695,272.8512,273.292,272.0046,272.0046,270.3577,270.3577,268.6547
279.7728,279.7728,280.0589,280.0589,279.7452,279.7452,280.2161,280.6093,282.3794,282.3794,281.6586,281.3726,281.216,280.3084,280.3084,281.2199,282.5617,281.8548,282.0949,281.4487,281.4487,280.6915,280.6915,280.6915,281.8986,281.8986,281.8062,282.8105,281.9776,280.2944,278.6532,278.6532,279.9013,278.9079,278.9079,278.9079,278.5292,279.1733,279.1733,277.4312,277.4312,275.4687,275.4559,275.1448,275.1448,275.1448,275.8603,274.3482,274.3482,274.3482,274.3482,272.9678,274.531,274.531,274.531,271.3092,269.7399,271.8249,270.3661,270.3661,270.3661,267.5922,267.5922,267.7677,267.7677,267.7677,269.0286,269.0286,269.27,269.0278,269.8468,267.6826,267.6826,269.6415,269.6415,268.6497,267.475,267.5411,267.0631,267.0631,267.0631,269.7896,269.9446,269.9446,266.3163,266.7729,266.7729,266.7729,269.8892,269.4695,267.9585,269.394,269.394,271.1656,271.1656,263.1129,255.2261,255.2261,255.2261,255.2261,255.2261,204.4569,191.3498,185.7882,183.4877,183.4219,186.4852,194.3749,213.9783,235.9441,252.2196,263.0346,263.3839,263.3839,263.3839,266.718,269.9444,272.1535,272.1535,272.8695,272.8512,274.8845,274.2901,273.4637,273.4637,271.2166,271.2166,271.7402
279.7728,279.7728,280.0561,280.0561,280.1799,280.1799,281.2483,282.6786,284.3144,284.3144,280.9084,280.9084,280.9084,280.3084,280.3084,280.8082,280.1598,282.5617,281.8548,281.873,281.873,283.2403,283.2403,283.2403,281.8671,281.8671,282.8105,282.8105,281.1447,280.5717,279.3437,279.3437,279.3437,278.9079,278.9079,278.9079,278.5292,279.1733,279.1733,275.689,275.689,275.4687,275.4559,275.1448,275.1448,275.1448,275.8603,274.3482,274.3482,274.3482,274.3482,272.9678,274.531,274.531,274.531,271.3092,269.7399,271.8249,270.3661,270.3661,270.3661,267.5922,267.5922,267.7677,267.7677,267.7677,269.0286,269.0286,269.27,269.0278,269.8468,267.6826,267.6826,269.6415,269.6415,268.6497,267.475,267.5411,267.0631,267.0631,267.0631,269.7896,269.9446,269.9446,266.3163,266.7729,266.7729,266.7729,269.8892,269.4695,267.9585,269.394,269.394,271.1656,271.1656,263.1129,255.2261,255.2261,255.2261,255.2261,255.2261,222.7839,202.7734,191.4069,185.7486,183.3351,182.4086,188.5215,199.3272,217.8135,233.4079,256.1505,263.3839,263.3839,263.3839,266.718,269.9444,272.1535,272.1535,273.354,274.8845,274.2901,272.8767,272.8767,272.8767,270.7306,270.7306,271.1783
279.7728,279.7728,279.2748,279.2748,281.2547,280.1812,281.2937,281.2937,282.9777,282.9777,280.9084,280.9084,280.9084,283.0005,283.0005,282.8643,280.8082,280.1598,281.8362,282.464,282.464,283.5523,283.2403,283.2403,281.8671,281.8671,282.8105,282.8105,281.1447,280.5717,279.3437,279.3437,279.3437,278.9079,278.9079,278.9079,278.5292,279.1733,279.1733,275.689,275.689,275.4687,275.4559,275.1448,275.1448,275.1448,275.8603,274.3482,274.3482,274.3482,274.3482,272.9678,275.1591,275.1591,272.5744,273.1779,273.1779,273.1779,269.6221,269.6221,269.2299,268.2538,268.2538,268.2538,268.2538,268.2538,268.7145,268.7145,268.4716,268.4716,268.4716,267.3983,267.3983,268.4615,268.4615,268.134,268.134,268.134,268.8648,268.8648,268.5988,268.5988,268.5988,268.5988,268.7305,270.8795,270.8795,268.331,268.331,269.9377,269.6071,270.4594,270.782,269.8356,269.8356,265.5262,255.2261,255.2261,258.3347,255.2261,255.2261,236.009,221.5877,201.3799,190.6779,184.7046,183.64,184.9292,190.5543,201.1706,223.8029,245.7312,263.3839,263.3839,263.3839,266.718,269.9444,272.1535,272.1535,272.1535,273.354,272.8767,272.8767,272.8767,272.8767,268.0732,268.0732,271.1903
280.2687,280.2687,279.2748,279.2748,281.2547,280.1812,281.2937,281.2937,282.9777,282.9777,283.0508,283.7383,283.7691,283.6877,283.6877,283.0005,282.8643,282.0496,282.0496,282.459,282.459,283.8009,283.8009,283.8009,283.1038,283.1038,282.3565,282.3565,281.0575,278.7467,280.2952,280.2952,280.2952,279.7604,277.9615,277.9615,278.0111,278.0111,278.0111,274.6474,274.6474,274.6474,274.6474,274.6474,275.0563,275.0563,274.312,274.2306,274.2306,274.6824,274.6824,273.7841,272.5952,272.5952,272.5952,273.1779,270.4367,270.4356,270.2269,270.2269,269.1266,268.2182,268.2182,268.2182,268.2182,268.2182,268.1306,268.1306,268.1323,268.1323,268.1323,269.0362,269.0362,268.3495,268.3495,268.134,268.134,268.134,267.4115,267.4115,269.1296,269.1296,269.1296,269.1296,268.7427,268.2216,268.2216,268.331,270.2765,269.9848,269.6071,270.4594,270.782,269.618,269.618,269.9501,264.4231,255.2261,263.4628,262.2379,262.2379,262.2379,235.5887,222.7287,202.221,191.1356,185.9574,185.6481,185.8642,193.605,208.6822,231.924,249.379,253.9161,247.3727,260.6415,266.8599,271.4016,271.9671,271.9671,273.354,273.354,272.8767,272.8767,272.8767,272.8767,272.8767,267.9669
280.2687,280.2687,281.4071,281.4071,280.7314,280.696,281.7659,281.7659,282.8077,282.8077,281.0078,283.2968,283.6877,283.6877,283.6877,283.6877,282.8643,282.0496,282.0496,282.459,282.459,283.8009,283.8009,283.8009,280.5493,280.5493,280.8414,282.8375,282.315,280.6224,281.9012,281.9012,282.2675,280.5194,278.6277,278.6277,278.368,276.8048,276.8048,274.6474,274.6474,274.6474,274.6474,274.6474,274.1501,274.1501,275.0101,274.9467,274.9467,274.5815,274.5815,274.429,275.2695,275.2695,272.9934,273.1779,270.9789,270.9789,273.1876,273.1876,269.7962,268.6025,268.6025,268.6025,268.6025,268.6025,268.3268,268.3268,268.3203,268.3203,268.3203,269.0738,269.0738,268.2408,268.2408,268.03,268.03,268.03,269.2049,269.2049,269.1855,269.1855,269.1855,269.1855,268.7427,268.5067,268.5067,268.331,270.2765,269.9377,269.6071,270.4594,270.782,271.5499,271.5499,271.6995,271.6995,271.6995,263.4628,262.2379,262.2379,262.2379,254.8278,241.6825,221.8512,200.749,190.1404,184.9519,184.3768,188.8607,197.7676,216.6973,236.8006,241.3623,255.8551,262.2779,268.796,272.8692,274.1656,274.1656,273.2395,272.7242,272.7242,272.8767,272.8767,270.2193,270.2193,271.143
280.2687,280.2687,281.9248,281.9248,281.4358,281.4358,281.4867,281.4867,281.5982,281.5982,283.143,284.2687,282.4783,283.6877,283.6877,282.8643,282.8643,282.6257,282.6257,283.2791,283.2791,283.8009,283.8009,283.8009,281.9751,280.5493,280.8414,282.8375,282.315,278.801,281.9012,281.9012,282.2675,280.5194,278.6277,278.6277,278.368,276.8048,276.8048,274.6474,274.6474,274.6474,274.6474,274.6474,274.1501,274.1501,275.0101,274.9467,274.9467,274.5815,274.5815,274.429,275.2695,275.2695,273.1558,273.1558,271.3669,271.3669,272.0136,272.0136,272.6006,268.6615,268.6615,268.6615,268.6615,268.6615,268.3089,268.3089,267.9367,267.9367,267.9367,267.6835,267.6835,268.2818,268.2818,268.5798,268.5798,268.5798,270.8907,270.8907,269.8622,269.8622,269.8622,269.8622,270.0136,268.8726,268.8726,270.0905,269.7452,270.1048,270.4411,270.5346,271.0202,271.9541,271.9541,271.395,271.395,271.395,270.8484,262.2379,262.2379,262.2379,258.5367,258.5367,240.413,217.0626,196.2735,188.2179,184.6889,186.6052,191.3193,201.3332,219.4594,239.4935,253.893,263.5134,268.6848,271.3076,272.0288,272.0288,273.2395,272.7242,272.7242,271.5945,271.5789,270.8968,270.288,271.4163
279.8589,279.8589,281.3237,281.3237,281.6615,281.6615,281.5476,281.5476,283.5369,283.5369,283.3909,282.2366,284.2687,282.4783,282.8643,282.8643,282.8643,282.9044,282.9044,283.5771,283.5771,282.7889,282.7889,282.7889,283.4009,283.4009,282.5135,282.5414,279.7871,280.7732,279.9268,279.9268,279.9268,279.5412,279.0594,279.0594,279.4887,278.6794,278.6794,277.7421,275.7893,276.3594,276.5142,273.6239,274.2027,274.2027,274.3042,273.7044,273.7044,272.2923,274.5815,272.865,275.2695,275.2695,273.1558,273.1558,271.3669,271.3934,270.1053,270.1053,269.8501,268.5757,268.5757,268.5757,268.5757,268.5757,268.2734,268.2734,267.8026,267.8026,267.7682,267.2394,267.2394,268.3787,268.3787,268.9408,268.9408,268.9408,268.6363,268.6363,269.951,269.951,269.951,269.951,270.0136,271.1707,271.1707,270.0905,269.7452,270.1048,270.4411,270.5346,271.0202,272.7189,272.7189,271.4079,271.4079,271.4079,271.6236,271.6236,271.3724,271.3724,263.9589,263.9589,271.658,230.2515,210.137,193.1925,187.7162,184.7073,187.1882,192.3929,203.4499,224.1357,244.4075,257.6933,262.9605,267.981,270.4923,270.4923,273.2395,272.7242,272.7473,272.2056,272.1817,271.8902,271.688,271.2299
279.8589,279.8589,281.3237,281.3237,281.6615,281.6615,281.5476,281.5476,283.5369,283.5369,281.8798,283.3909,282.2366,284.6313,282.8643,282.8643,281.2723,282.0457,282.4289,282.1888,282.7112,282.3135,282.3135,282.3135,283.0512,283.0512,281.451,281.451,280.8059,278.9252,279.9914,279.9914,279.9914,280.2172,278.9231,278.9231,279.4887,279.0532,279.0532,276.2401,276.2401,276.6689,276.6689,275.5632,273.045,273.045,274.3013,274.1175,274.2377,274.2377,273.1006,273.1006,272.6141,272.6141,271.7967,271.7967,270.9153,270.9153,269.9932,269.9932,269.532,268.8643,268.8643,268.8643,268.8643,268.8643,268.3404,268.3404,268.1161,268.1161,268.1161,268.9473,268.9473,268.141,268.141,268.5056,268.5056,268.5003,269.4671,269.4671,269.752,269.752,269.7976,269.7976,271.6569,271.5569,271.5569,271.2295,269.3496,269.3858,269.8422,271.502,269.9485,270.387,270.387,272.0389,271.9637,270.2177,272.7559,273.0981,271.9436,271.9436,268.8464,263.1507,251.617,244.7708,225.2032,202.3267,190.1779,186.3803,184.3354,186.4996,193.8647,207.0889,227.4075,246.5044,261.5517,267.9732,272.3834,272.3834,272.8396,274.4088,273.1796,272.5669,272.3913,272.3519,272.0327,270.6501
282.1968,282.1968,282.3824,282.3824,282.247,282.247,281.7876,282.1984,283.5369,283.5369,283.5369,281.8798,284.3978,281.9956,282.2931,282.2931,282.0019,281.8748,282.4289,282.4289,282.4289,282.069,282.069,282.069,281.0992,281.0992,281.2219,281.2219,281.4227,280.8626,280.9461,280.9461,280.9461,280.3497,280.3497,280.3497,279.1827,279.1827,279.1827,276.47,276.47,276.47,276.47,275.9496,274.3925,274.3925,274.8567,273.3361,273.3361,273.3361,273.1006,273.1006,271.4898,271.4898,271.4898,272.0085,270.8001,270.8001,269.9712,269.9712,269.2586,268.5923,268.5923,268.5923,268.5923,268.5923,268.5154,268.5154,268.5309,268.5309,268.5309,268.9435,268.9435,268.141,268.141,268.5056,268.5056,268.5003,269.4671,269.4671,269.752,269.752,269.7976,269.7976,271.6569,271.5569,271.5569,271.2295,269.3496,269.3858,269.8422,271.502,269.9485,270.387,270.387,272.0389,271.9637,270.2177,272.7559,273.0981,271.9436,271.9436,268.8464,263.1507,251.617,259.9076,237.9199,213.8335,194.6539,186.9858,185.7394,186.0139,187.259,195.2496,213.5296,238.9176,255.4577,266.87,272.3834,272.3834,272.8396,274.4088,271.7794,272.4052,272.2449,270.9518,270.642,270.0846
281.8171,281.8171,282.0497,282.0497,282.6899,282.6899,281.7876,280.4954,283.4293,283.5369,283.5369,281.8798,284.3978,281.9956,282.2931,282.2931,282.0019,281.8748,282.4289,282.4289,282.4289,282.069,282.069,282.069,281.0992,281.0992,281.2219,281.2219,281.4227,280.8626,280.9461,280.9461,280.9461,280.3497,280.3497,280.3497,279.1827,279.1827,279.1827,276.47,276.47,276.47,276.47,275.9496,274.3925,274.3925,274.8567,274.8567,273.3361,273.3361,273.3361,273.3361,271.4898,271.4898,271.4898,272.0085,270.8001,270.8001,269.9712,269.9712,269.2586,268.5923,268.5923,268.5923,268.5923,268.5923,268.5154,268.5154,268.5309,268.5309,268.5309,268.9435,268.9435,268.141,268.141,269.7378,269.7378,269.5607,269.5975,269.7375,269.7375,269.7375,270.909,270.909,271.0606,270.1418,270.1418,271.2245,270.8092,271.4355,269.6672,269.6672,272.4219,273.8717,273.8717,272.3371,272.3371,272.3371,271.8032,271.848,270.2823,270.2823,271.9486,271.9486,271.9486,259.9076,248.9575,223.1556,202.1202,189.6604,184.6842,185.3616,184.2026,187.9687,202.0886,225.8708,248.7308,261.352,269.4958,269.4958,268.0451,268.0451,270.5924,271.9925,272.5916,272.2666,271.9613,271.4847
281.2373,281.2373,282.0258,282.0024,283.1118,283.1118,283.6786,281.5342,280.4954,283.4293,282.7663,282.7663,282.7663,282.7663,283.0603,283.0603,283.0603,283.0603,283.0603,283.0603,283.7633,282.069,282.069,282.069,282.8203,282.8203,281.2219,281.2219,281.2304,281.2304,281.2304,279.4688,279.4688,278.1266,278.1266,280.3497,279.1827,279.1827,277.8264,277.8264,276.6203,276.6203,276.2229,275.9602,275.9602,275.9602,274.8567,274.8567,273.3361,273.3361,273.3361,273.3361,271.4898,271.4898,271.4898,271.4166,270.212,270.212,270.6038,270.6805,270.6805,271.1814,271.1814,268.9033,268.9033,268.4768,268.4661,268.4822,268.2445,268.2445,268.7045,268.7045,269.7243,269.7243,269.7243,269.6663,269.6663,269.5812,269.5812,270.0455,270.0455,270.0455,269.4844,269.4844,271.0606,271.6804,271.6804,271.2245,270.8092,271.4355,271.183,271.5176,272.4219,272.2642,272.2642,272.269,272.269,272.269,271.9935,271.9935,271.9536,271.9536,271.6268,271.6268,271.6268,268.1228,268.1228,237.7901,211.0145,193.2363,185.9114,183.5839,183.253,186.4745,194.338,212.4549,233.7252,257.5954,268.4335,268.4335,268.0451,268.0451,270.5046,271.907,273.3081,273.6667,273.3614,272.8848
281.8071,281.8071,282.3788,282.3788,283.1118,284.4304,284.2131,283.6786,281.5342,282.7663,282.7663,282.7663,282.7663,282.7663,283.0603,283.0603,283.0603,283.0603,283.0603,283.0603,282.1955,284.0631,284.0631,285.4539,283.6624,283.5634,282.2536,282.2536,282.2644,282.2644,282.2644,279.4688,279.4688,278.5878,278.5878,280.3497,278.062,277.3781,276.9849,276.9849,276.3803,276.3803,275.9199,275.7272,275.7272,275.6379,275.488,275.488,273.3361,273.3361,273.3361,273.3361,273.8579,271.4898,271.4898,271.4166,270.212,270.212,270.8206,270.9558,270.9198,271.1259,271.1259,269.3615,269.3615,268.6885,268.6885,268.6885,267.6771,267.6771,268.6961,268.6961,269.9421,269.9421,269.9421,270.5722,270.5722,270.169,270.169,270.5746,270.5746,270.5746,268.9027,268.9027,272.1078,272.0093,272.0093,272.6187,273.2397,272.7088,272.1016,272.6414,272.8103,272.6685,272.6685,272.3751,272.3751,272.3751,272.55,272.55,270.8414,270.8414,272.7416,272.7416,272.7416,269.49,269.49,247.5844,221.5721,198.1289,188.125,185.2377,181.8449,184.1636,189.9936,202.2014,224.1557,249.4177,263.7068,263.7068,263.845,273.918,271.526,272.4859,273.8866,273.8037,273.8461,272.4604
282.4594,282.4594,281.8471,281.8471,282.2199,283.4854,284.4304,284.2131,284.0993,282.7663,282.7663,282.7663,282.7663,282.7663,283.0603,283.0603,283.0603,283.0603,283.0603,283.0603,284.4726,283.9859,283.9859,284.0201,283.6877,283.9779,282.2536,282.2536,283.5648,283.5648,280.9739,279.4688,279.4688,278.5878,278.5878,278.3491,278.062,277.3781,276.9849,276.9849,276.3803,276.3803,275.9199,275.8039,275.8039,275.6379,272.7679,272.7679,272.7679,273.3361,273.3361,273.3361,272.3938,272.2891,272.2891,272.1907,270.8506,270.8506,271.2249,270.8407,270.8407,271.2238,271.2238,269.6069,269.6069,268.584,268.576,268.584,269.0471,269.0471,268.8069,268.8069,270.0291,270.0291,270.0291,270.1665,270.1665,270.7637,270.7637,270.7197,270.7197,270.7197,269.7231,269.7231,273.6882,273.6036,273.6036,272.3833,274.4037,274.3442,272.7061,272.5901,274.303,272.6073,272.6073,272.5287,272.5569,272.5569,272.8716,272.8716,274.292,274.292,273.0992,273.0992,273.0992,270.9277,267.3961,267.3961,231.2027,206.6884,190.9002,185.1604,183.4024,183.5968,186.2215,195.1,216.846,240.4229,256.5638,256.5638,263.845,273.918,272.9261,273.2491,272.6699,272.3237,272.584,271.8662
281.0593,281.0593,281.1197,282.2199,282.2199,282.2199,283.4854,282.4505,282.9344,283.5003,286.0793,286.5746,286.5392,283.0603,283.0603,283.0603,283.0603,283.0568,283.0603,283.0603,282.8272,283.9971,283.9971,283.821,282.9626,282.5597,281.9517,281.9517,281.7646,281.7646,281.7646,280.1832,278.9206,278.9316,278.9316,278.9547,278.2707,276.7331,276.3128,276.3128,275.7824,275.7824,275.4946,275.5486,275.549,275.6379,272.7679,272.7679,272.7679,273.3361,273.3361,273.3361,272.5446,272.2891,272.2891,272.1907,270.8506,270.8506,271.1279,271.051,270.6204,272.4873,272.4873,269.9077,269.9077,269.082,269.082,269.082,269.3381,269.3381,269.629,269.629,270.0321,270.0321,270.0321,271.7356,271.7356,270.8737,270.8737,270.7969,270.7969,270.7969,269.7231,269.7231,273.6882,273.6036,273.6036,272.3833,274.4037,274.3442,272.7061,272.5901,274.303,272.6073,272.6073,273.1015,273.1015,273.1015,273.8807,273.8369,272.6945,272.6945,272.6447,272.6447,272.6447,272.475,267.3961,267.3961,241.2809,216.0977,195.9035,188.0713,184.2981,185.1858,184.3514,191.0379,205.7972,228.951,253.9037,253.9037,263.845,273.918,274.0684,272.2082,271.2141,270.7767,271.1187,271.2578
281.0593,281.0593,281.1197,282.2199,282.2199,282.2199,283.4442,284.8443,285.3811,285.8928,284.2642,286.5746,286.5392,284.1249,284.2336,284.2336,284.2233,283.0568,284.1365,284.0444,282.8272,283.9971,283.9971,283.3782,281.4261,280.3994,280.5071,280.5071,280.6639,280.6639,280.6639,281.69,278.6765,278.6534,278.6534,278.6534,280.2005,276.7331,275.4485,275.4485,275.4485,275.4485,275.3455,275.0466,275.0466,272.7679,272.7679,272.7679,272.7679,272.7679,272.7679,272.7679,272.3638,272.2202,272.2202,271.838,271.0009,271.0009,271.3901,271.4044,270.6204,270.0168,270.0168,270.0168,270.0168,270.0168,268.968,268.968,268.5458,268.5458,269.6149,269.6226,270.6994,270.6994,270.6994,271.2982,271.2982,270.7463,270.7463,270.7379,270.7379,270.7379,270.0776,270.0776,273.1575,274.1765,274.1765,272.6909,271.1509,272.3457,272.3457,272.5337,272.0208,272.5501,272.5501,272.785,272.5844,274.5868,273.4709,274.994,274.531,274.531,272.4255,271.6448,271.6448,272.2675,277.6429,288.8462,249.4239,223.8736,203.5785,191.0695,185.3364,183.2464,183.4107,185.7004,197.3691,221.9626,247.8629,263.9832,270.1711,277.6429,273.435,271.0953,269.6949,269.1694,269.6091,270.8891
283.3953,283.3953,283.3953,283.3953,284.0876,284.0876,284.1774,282.7773,284.1329,286.4142,286.2705,285.1742,284.6243,284.0153,283.8966,283.8966,284.2035,283.9874,283.5997,283.4859,282.9091,283.9971,283.9971,283.3782,281.4261,280.3994,280.5071,280.5071,280.6639,280.6639,280.6639,281.69,278.6765,278.6534,278.6534,278.6534,280.2005,278.0176,275.4485,275.4485,275.4485,275.4485,275.3455,275.0466,275.0466,275.0466,275.5666,272.7679,272.7679,272.7679,272.7679,272.7679,274.1393,272.2202,272.2202,272.0096,272.0096,272.0096,271.4815,271.1685,271.1685,270.0168,270.0168,270.0168,270.0168,270.0168,268.968,268.968,268.5458,268.5458,269.6149,269.6226,270.6994,270.6994,270.6994,271.2982,271.2982,270.7463,270.7463,270.7379,270.7379,270.7379,270.0776,270.0776,273.1575,274.1765,274.1765,272.6909,271.1509,272.3457,272.3457,272.5337,272.0208,272.5501,272.5501,272.785,272.5844,274.5868,273.4709,274.994,274.531,274.531,272.4255,271.6448,271.6448,272.2675,277.6429,288.8462,256.4636,234.8411,212.6137,194.9608,186.349,183.2634,181.6724,185.7406,192.7273,212.6988,240.7029,260.2962,268.2007,277.6429,271.0641,268.929,267.8216,267.4776,268.9079,271.3108
283.3953,283.3953,283.3953,283.3953,283.9092,283.9092,283.9952,282.6367,284.5699,284.9973,284.7529,285.1742,284.6243,284.0153,283.8966,283.8966,284.2035,283.9874,283.5997,283.4859,282.9091,283.2315,283.2315,282.5626,282.2874,281.7683,281.5728,281.205,280.8717,280.8837,281.1769,279.1278,277.7009,278.6534,278.6534,278.6534,280.2005,278.0176,275.4485,275.4485,275.4485,275.4485,275.3455,275.0466,275.0466,275.0466,275.5666,272.7679,272.7679,272.7679,272.7679,272.7679,274.1393,272.2202,272.2202,272.0182,272.052,272.052,271.1763,271.1763,270.0168,270.0168,270.0168,270.0168,270.0168,270.0168,270.1187,270.8883,271.6885,271.6885,270.7392,270.7392,270.5672,270.5672,270.5672,269.6786,269.6786,270.4171,270.4171,270.4067,270.4067,270.4067,270.9861,270.9861,272.3255,272.3255,272.3255,272.7339,272.7339,274.2848,274.2848,272.7037,272.7037,273.8369,273.8369,273.8369,273.4865,273.3145,273.6569,273.9027,274.1655,274.1655,273.8598,273.4357,273.2274,272.6709,271.0759,270.0052,262.2193,245.4033,223.2355,199.6627,188.1203,182.7215,184.5688,184.0938,189.8788,203.926,230.6898,253.2869,264.6174,266.4098,267.4332,265.4852,265.0882,265.8379,268.2227,270.9862
282.4823,282.4823,282.4823,282.4823,284.5708,284.5708,283.7892,283.1069,284.0231,287.0823,286.5613,284.9675,283.5222,283.3152,283.5267,283.5267,283.2144,283.0594,283.1864,283.0154,282.4143,281.2509,281.2509,282.0616,283.7563,280.9141,282.7389,280.9777,281.6749,280.2234,280.2234,279.2179,277.9072,276.1693,276.1693,278.3093,277.223,276.9666,276.9666,276.0993,276.0993,276.0993,275.687,275.687,275.4456,275.4456,274.9351,274.0641,274.0641,272.7679,272.7679,272.7679,274.1393,272.2202,272.2202,272.0182,272.052,272.052,271.1763,271.1763,270.0168,270.0168,270.0168,270.0168,270.0168,270.0168,270.1187,270.8883,271.6885,271.6885,270.7392,270.7392,270.5672,270.5672,270.5672,269.6786,269.6786,270.4171,270.4171,270.4067,270.4067,270.4067,270.9861,270.9861,272.3255,272.3255,272.3255,272.7339,272.7339,274.2848,274.2848,272.7037,272.7037,273.8369,273.8369,273.8369,273.4865,273.3145,273.6569,273.9027,274.1655,274.1655,273.8598,273.4357,273.2274,272.6709,271.0759,270.5215,265.4809,254.4771,231.6135,207.179,190.862,183.7194,183.2704,185.305,186.1383,196.4118,218.5531,243.644,256.4861,268.166,261.5748,261.3826,261.9483,263.9337,267.2242,270.9897
284.2759,284.2759,284.2759,284.2759,285.7479,285.7479,285.8757,285.8757,286.1222,284.6662,285.165,286.2948,284.1342,281.8261,282.7479,282.7479,282.9575,282.1107,282.2955,283.7437,283.8756,281.2509,281.2509,282.0616,283.7563,280.9141,282.7389,280.9777,281.6749,280.2234,280.2234,278.8356,277.7182,277.9652,277.9652,278.3093,277.2161,276.7741,276.7741,277.709,277.709,277.709,276.0462,276.0462,274.9622,274.9622,274.0641,274.0641,274.0641,273.2331,272.8341,274.3046,272.0721,272.1846,274.2594,272.3996,270.6736,270.6736,271.1763,271.1763,270.0168,270.0168,270.0168,270.0168,270.0168,270.0168,270.8883,270.8883,271.6885,271.6885,271.222,271.222,271.0981,271.0981,271.0981,272.2128,272.2128,271.2151,271.2151,271.3158,271.3158,271.3158,271.7877,271.7877,272.0501,272.0501,272.0501,272.3079,272.3584,272.3765,272.3765,272.5924,272.5924,273.8369,273.8369,273.8369,273.4865,273.3145,273.6569,273.9027,274.1655,274.1655,273.8598,273.4357,273.2274,272.6709,273.3464,273.9858,270.6312,260.5809,241.3891,215.4131,194.1523,186.02,183.3176,183.3684,185.7362,190.0361,207.5553,231.3869,253.8324,254.0497,255.539,256.4798,258.4076,261.722,266.0167,270.4334
284.2759,284.3052,284.2759,284.2759,284.6035,284.6035,285.8757,285.8757,286.4635,286.4666,285.1025,286.2948,284.1342,281.8261,282.7479,282.7479,282.9575,282.1107,282.2955,283.7437,283.8756,281.2509,281.2509,282.6867,283.0216,282.2687,281.915,281.3673,280.9915,278.8785,278.8785,278.6748,278.0911,277.4533,277.4533,277.4533,277.1282,276.4677,276.7603,276.7603,276.7603,276.7603,276.1772,276.1772,274.0641,274.0641,274.0641,274.0641,274.0641,273.5616,272.8638,272.9843,272.7283,272.4866,272.6965,273.6984,270.6736,270.6736,271.1763,271.1763,271.0289,270.0168,270.0168,270.0168,270.0168,270.8788,271.1176,271.4067,271.6975,271.6975,271.1719,271.1719,271.1921,271.1921,271.1921,273.2281,273.2281,271.5292,271.5292,271.0764,271.0764,271.0764,272.3237,272.3237,272.208,272.208,272.9025,272.3783,272.3783,272.6388,272.6388,273.1768,273.1768,273.5407,273.5407,273.5407,273.1501,272.9339,272.8903,273.1658,273.7572,273.7572,273.8058,273.4834,273.2668,272.835,272.8632,272.6977,272.1711,264.6039,249.566,221.6731,199.0557,187.3419,183.8548,183.2605,183.7789,188.2693,197.2958,220.5213,243.9616,245.4295,248.1051,250.9954,254.587,259.3345,264.5134,269.9743
284.2759,284.2759,284.2759,284.2759,286.0036,286.0036,285.8757,285.8757,284.4826,284.3672,286.2865,284.7253,283.8396,283.4373,283.3684,283.3684,283.4257,283.3231,283.5883,282.8459,282.4196,283.6789,283.6789,283.2324,282.5637,281.868,281.1443,280.356,280.0416,279.3439,279.3439,279.046,278.5044,277.523,277.523,277.523,277.6272,276.7603,276.7603,276.7603,276.7603,276.7603,276.1772,276.1772,274.0641,274.0641,274.0641,273.4109,273.4109,274.7419,272.7357,272.5085,272.7967,274.3641,272.5734,272.2668,270.0378,270.0378,270.8573,270.8573,271.0289,270.9389,270.0168,270.0168,270.0168,270.8788,271.1176,271.3683,271.9247,271.9247,271.2484,271.2484,270.8456,270.8456,270.8456,270.4061,270.4061,271.8171,271.8171,271.4189,271.4189,271.4189,271.4695,271.4695,272.208,272.208,272.9025,274.2927,274.2927,274.3635,274.3635,273.1768,273.1768,273.5407,273.5407,273.5407,273.1501,272.9339,272.8903,273.1658,273.7572,273.7572,273.8058,273.4834,273.2668,272.835,272.8632,272.4496,271.6499,268.1431,256.2919,231.2302,206.0163,190.0245,185.9223,183.5918,185.152,186.0867,192.6265,208.5816,230.3859,236.2197,240.713,245.5186,250.9924,256.7919,262.6973,269.0154
286.7978,286.4167,285.0276,286.404,285.0038,285.0038,284.8295,284.9392,284.7598,284.5869,284.2516,284.7253,282.9801,283.4373,283.3684,283.3684,283.4257,283.3231,283.5883,282.8459,282.4542,282.2029,282.2029,283.2324,282.5637,281.868,281.1443,280.356,280.0416,279.1761,279.1761,279.2085,279.2622,278.076,278.076,278.076,278.2524,276.7603,276.7603,276.7603,276.7603,276.7603,276.7133,276.7133,276.7118,276.7118,273.6885,272.8146,272.8146,274.6333,272.7795,272.5848,272.1664,273.5293,272.9078,271.4453,271.8424,271.8424,270.2168,270.9541,271.0866,270.9389,270.5831,270.7148,270.7148,270.8788,271.1176,271.3683,271.7943,271.7943,271.0182,271.0182,270.5893,270.5893,270.5893,269.9422,269.9422,270.8686,270.8686,271.9872,271.9872,271.9872,271.4695,271.4695,272.208,272.208,272.9025,274.2927,274.2927,274.3635,274.3635,273.3281,273.3281,272.6937,272.6937,272.8279,272.4972,272.3753,272.5812,272.8224,274.3961,274.3961,272.7643,272.8282,272.6975,272.6436,274.2385,274.3357,273.5553,269.2466,259.6125,239.4773,210.9066,193.3009,186.6879,183.642,185.0665,183.1246,187.8218,199.3115,219.0174,227.1157,233.9994,240.8396,247.5822,254.1731,260.7054,267.0644
286.7978,286.4167,285.0276,286.404,285.0038,285.0038,285.1652,286.4025,287.3111,286.5023,284.6922,284.5421,284.064,283.1748,283.163,283.163,283.1219,282.7233,281.9184,281.9184,283.2598,283.3714,283.3714,283.214,281.2673,281.0542,280.3939,279.3298,279.3298,278.8181,278.8181,279.3298,279.7749,278.5336,278.5336,278.5336,278.0911,276.7603,276.7603,276.5059,276.5059,276.5059,277.3182,275.7009,275.3001,275.3001,276.2407,273.2646,273.2646,273.2646,273.1143,273.2562,273.0966,272.5817,272.0889,273.6331,272.0962,272.0962,271.9437,271.0219,270.86,270.4903,270.378,271.1612,271.1612,270.9161,270.8959,271.0557,270.1629,270.1629,271.3736,271.7219,271.1232,270.5893,270.5893,269.9422,269.9422,271.4485,271.997,272.8153,273.3967,273.3922,274.4254,274.4254,274.4254,272.9557,273.1957,274.1056,274.1056,274.1861,274.1861,272.9612,272.9061,272.6937,272.6937,272.8279,272.4972,272.3753,272.5812,272.8224,274.3961,274.3961,272.7643,272.8282,272.6975,272.6436,274.2385,272.7365,272.4517,270.3477,261.4972,239.4358,217.0054,195.247,186.304,183.5467,183.428,184.7777,184.9977,192.3144,208.4794,219.892,228.5854,236.687,244.3396,251.6725,258.6614,265.5896
285.212,285.212,285.212,285.212,286.6379,286.6379,285.8418,284.4417,284.8157,286.5052,286.3481,284.6334,285.8694,284.1623,281.894,281.894,283.5191,281.7337,281.9184,281.9184,283.2598,283.3714,283.3714,283.214,281.2673,281.0542,280.3939,279.3298,279.3298,278.8181,278.8181,279.3298,279.7749,278.5336,278.5336,278.5336,278.0911,276.7603,276.7603,276.5059,276.5059,276.5059,277.3182,275.7009,275.3001,275.3001,276.2407,273.2646,273.2646,273.2646,273.1143,273.2562,273.1589,274.6024,271.4065,272.58,270.6479,270.6479,270.559,271.0219,270.86,270.4903,270.378,271.1612,271.1612,270.9161,270.8959,271.0557,271.9222,271.9222,271.3736,271.7219,271.1232,271.4314,271.4314,271.1451,271.3112,271.4485,271.997,272.8153,273.3967,273.3922,274.4254,274.4254,274.4254,272.9557,273.1957,273.4517,273.4164,273.4912,273.6577,272.9612,272.9061,273.2161,273.2161,273.2161,273.5003,273.035,272.8149,273.0075,273.266,273.266,273.1207,273.239,272.7778,273.0542,273.1812,274.038,271.395,270.1045,259.4869,246.4459,221.2959,197.5921,187.1215,184.0918,185.2722,183.3209,182.4819,188.0113,201.7934,214.0658,223.9022,232.9382,241.4166,249.4424,257.0859,263.7703
285.212,285.212,285.212,285.212,286.2198,286.2198,286.4216,286.2092,283.9329,285.8171,284.2511,284.6334,285.8694,284.1623,281.894,281.894,283.5191,281.7337,281.9184,281.9184,282.3434,281.8129,281.3464,281.4319,281.0896,280.8406,280.2039,279.3298,279.3298,278.7472,278.7472,278.4055,278.1062,275.886,275.886,275.886,278.1477,276.6832,276.6832,276.6761,276.2748,276.2748,275.771,275.8879,275.4693,275.0756,274.8221,274.4472,274.4472,274.4472,272.2879,273.0072,273.0274,272.6756,272.6978,272.6973,270.6374,270.6374,270.6368,270.5201,271.9023,269.9458,269.8091,270.068,270.068,270.0324,271.6234,271.6304,271.8207,271.8207,271.3736,271.7219,271.1232,270.1337,270.1337,271.1451,271.3112,271.4485,271.9733,272.8153,273.3967,273.3922,273.6687,273.1096,273.1096,272.9557,273.1957,273.4517,273.4164,273.4912,273.6577,272.9612,272.9061,273.2118,273.2118,273.2161,273.5003,273.035,272.8149,273.0075,273.266,273.266,273.1207,273.239,272.7778,273.0542,273.1812,272.3593,273.2522,268.1893,263.8244,248.6149,226.7708,204.6186,191.5132,185.6372,183.8552,184.9228,183.2223,185.6642,196.0402,209.3792,219.9398,229.7243,238.9112,247.6231,255.8999,264.1636
285.212,285.212,285.212,285.212,285.2063,285.2063,285.7145,284.6818,285.9972,283.4931,282.8303,284.1209,283.8696,283.0281,282.842,282.842,282.885,283.1024,281.7021,281.7021,282.1407,281.8129,281.3464,281.4319,281.0896,280.8406,280.2039,279.3298,279.3298,278.7275,278.7275,278.4055,278.1062,277.7618,277.7618,277.7618,276.5168,276.6832,276.6832,276.6761,276.2748,276.2748,275.771,275.8879,275.4433,275.0866,274.8221,274.4472,274.4472,274.4472,273.3675,273.0072,273.0274,272.6756,272.6978,272.6973,270.6374,270.6374,270.6368,270.5201,271.9023,269.9458,269.8091,270.068,270.068,270.0324,271.6234,271.6304,271.8207,271.8207,271.9501,271.9781,270.2961,271.8438,271.8438,270.195,271.8831,270.3532,270.1129,272.3593,275.1431,273.6784,272.7241,272.4167,272.4167,274.2345,272.4218,272.8489,272.9451,272.5676,274.5462,274.5529,272.5007,273.2161,273.2161,273.2161,273.5003,273.035,272.8149,273.0075,273.266,273.266,273.1207,273.239,272.7778,273.0542,273.1812,272.2562,271.6481,270.9014,264.1106,257.7929,239.401,214.7205,196.2883,188.4505,185.6873,183.41,183.3802,185.806,192.0936,205.6533,216.7439,227.0725,236.8461,246.2281,255.3309,263.9647
284.788,284.788,284.788,284.788,286.0019,286.0019,284.3469,285.747,284.4196,284.4004,284.3194,284.1209,283.8696,283.0281,282.842,282.842,282.885,283.1024,284.7466,284.7466,281.6697,281.8688,281.0354,281.3659,281.7854,281.0655,281.9211,278.9116,278.9116,280.2897,280.2897,280.0873,278.528,277.8964,277.8964,277.8964,275.9068,277.0399,277.0399,276.3013,275.9946,275.9946,275.4567,276.9243,275.1024,276.7665,275.0155,273.2033,273.2033,273.2033,273.3675,273.27,275.3101,273.0399,272.6244,274.4004,274.125,272.278,272.0851,271.1066,271.2658,270.6889,270.2841,270.8004,270.8004,271.1692,271.2809,271.2314,271.8207,271.8207,271.9501,271.9781,270.2961,271.8438,271.8438,270.195,271.8831,270.3532,270.1129,272.3593,275.1431,273.6784,272.7241,272.4167,272.4167,274.2345,272.4218,272.8489,272.9451,272.5676,274.5462,274.5529,272.5007,273.2161,273.2161,273.6454,273.9572,273.5757,272.9105,272.6792,273.0375,273.0375,272.8922,272.9245,273.1137,273.4521,273.4755,272.2899,272.1693,269.7372,269.8935,263.0233,249.7072,224.984,203.9538,190.5319,184.9256,183.2106,184.8857,183.9182,188.7319,202.9236,214.2301,224.9698,235.2559,245.1925,254.8892,264.7486
284.788,284.788,284.788,284.788,284.6707,284.6707,284.1307,282.8114,283.8915,284.2434,284.3873,282.9558,282.3912,283.344,282.5348,282.5348,283.621,281.8122,283.4297,283.4297,281.6697,281.8688,281.0354,281.3659,281.7854,281.0655,281.9211,278.9116,278.9116,280.2897,280.2897,280.0873,278.528,277.8964,277.8964,277.8964,275.9068,277.0399,277.0399,276.3013,275.9946,275.4567,275.4567,276.9243,275.1024,276.7665,275.0155,276.2264,273.2033,273.2033,275.3599,273.2735,274.6988,272.7125,272.3362,272.3595,274.1765,272.3301,271.9846,271.1066,271.2658,270.6889,270.2841,270.8004,270.8004,271.1692,271.2809,271.2314,270.3054,270.3054,271.0639,271.8667,271.7258,273.0244,273.0244,272.4341,271.0231,270.855,271.67,273.2152,273.5742,273.6464,273.4034,273.9507,273.9507,274.0831,273.4074,273.1773,273.1852,273.4726,273.7281,273.8812,273.8812,272.8777,272.8777,273.2236,275.4248,272.7986,272.6911,272.2634,272.7313,272.7313,272.631,272.9017,274.4565,274.5197,274.0149,271.4946,271.6738,272.614,271.5327,265.7052,254.1728,237.9297,211.9041,193.5763,185.2411,182.0007,183.1413,183.467,187.893,200.9227,212.3718,223.395,234.0652,244.4431,254.661,264.7142
283.7127,285.1128,284.2091,284.5641,284.4276,284.4276,284.7914,284.1777,282.5229,283.0274,283.4666,283.5528,283.1061,282.673,284.1164,284.1164,283.7763,281.651,281.553,281.553,282.5064,281.5024,281.0252,280.8137,280.4656,280.5911,279.8346,279.2762,279.2762,279.1158,279.1158,278.573,278.2095,277.9409,277.9409,277.9409,276.4532,276.5696,276.5696,276.2504,276.4589,276.3539,276.3539,275.9548,276.0089,275.4421,274.6562,274.4409,273.3499,273.3499,273.0627,272.6515,274.4794,274.2055,271.9857,272.2602,271.7279,271.7837,269.8841,270.9057,270.6172,270.8621,271.1937,271.0386,271.0386,270.4978,270.7232,270.3629,270.1424,270.1424,271.0639,271.8667,271.7258,272.0002,272.0002,271.1414,271.0231,270.855,271.67,273.2152,273.5742,273.6464,273.4034,273.9507,273.9507,274.0831,273.4074,273.1773,273.1852,273.4726,273.7281,273.8812,273.5268,272.8777,272.8777,273.2236,275.4248,272.7986,272.6911,272.2634,272.7313,272.7313,272.631,272.9017,274.4565,274.5197,274.0149,271.4946,271.6738,272.614,272.5259,267.5124,262.3211,244.7759,218.5499,195.6707,186.1356,182.0053,184.5106,183.2742,186.0072,199.502,210.9753,222.2378,233.2222,243.9726,254.5291,264.8949
283.7127,285.1128,284.2091,284.5641,284.4276,284.4276,284.5538,285.7744,284.2361,282.8239,284.2358,284.2798,284.3923,284.0484,282.725,282.725,282.3826,282.5764,284.385,284.385,282.582,281.0741,280.9509,280.5656,280.2548,279.6186,279.1094,278.8572,278.8572,277.9185,277.9185,278.1215,278.0378,276.587,276.587,276.587,277.227,276.2643,276.2643,276.3241,276.6044,276.366,276.366,276.148,276.0052,275.1299,274.082,274.0277,273.5451,273.5451,272.7405,272.3816,272.4967,272.5282,274.01,271.9063,271.418,269.7589,271.7103,271.8578,270.2455,270.1611,271.9117,271.6191,271.6191,269.9238,269.7915,270.0137,270.1535,270.1535,269.7948,270.103,271.7972,270.0733,270.0733,271.1414,271.0231,270.855,271.67,273.2152,273.5742,273.6786,273.4034,273.9507,273.9507,274.0831,273.4074,273.1773,273.1852,273.4726,273.7281,273.5268,273.5268,272.9442,272.9442,272.8139,274.7605,274.8168,275.5368,273.0175,272.7345,274.3724,272.5442,272.5769,272.6632,274.5015,274.4329,272.6524,272.6482,274.0826,271.427,270.5412,264.3619,250.5475,224.9548,199.8645,187.8203,182.8285,183.0186,182.8636,185.0796,198.2283,209.843,221.395,232.7663,243.8511,254.5784,265.2844
286.5834,285.1791,284.2044,284.6591,284.8436,284.8436,284.1105,285.5107,283.5899,284.2295,282.7133,282.5273,284.0016,282.419,283.9204,283.9204,283.8906,282.5952,282.2841,282.2841,281.7488,281.0741,280.9509,280.5656,280.2548,279.6186,279.1094,278.8572,278.8572,277.9185,277.9185,278.1215,278.0378,276.8498,276.8498,276.8498,277.227,276.2643,276.2643,276.3241,276.6044,276.366,276.366,276.148,276.0052,275.1299,274.082,274.0277,273.0547,273.0547,274.5006,272.7317,272.5148,274.0832,272.2764,273.4259,270.2625,270.55,272.0217,271.8578,270.2455,270.1611,271.9117,271.6191,271.6191,269.9238,269.7915,270.0137,270.1535,270.1535,269.7948,270.103,271.7972,270.0733,270.0733,270.84,270.8393,271.3433,271.8763,272.1055,272.57,272.5093,273.305,273.6783,273.6783,273.8051,273.5826,273.2032,273.1215,273.2845,273.3823,273.399,272.7999,272.6357,272.6357,272.8327,274.612,272.9847,272.6988,272.6842,272.7393,274.6125,272.7459,274.5282,274.6068,272.8572,274.6884,274.4233,272.6933,274.1638,273.7359,271.2732,265.9435,253.3865,231.076,205.2729,190.2002,185.5857,183.0509,181.4151,184.0654,196.8845,208.7128,220.7699,232.7678,244.3448,255.1501,264.9999
283.1957,284.5998,284.4023,285.8025,286.2437,286.2437,284.5862,283.1861,282.9933,284.2294,284.2889,282.7955,282.3593,283.8992,281.9727,281.9727,281.9521,283.8365,283.9008,283.9008,280.2593,281.2614,281.2536,281.069,280.7208,280.7892,279.4693,278.5757,278.5757,278.154,278.154,278.296,277.3733,276.6587,276.6587,276.6587,277.8469,278.4659,278.4659,275.5627,275.8413,277.6635,277.6635,277.1874,276.5802,276.161,274.912,273.1669,272.8814,272.8814,272.9133,274.3992,272.4553,272.0897,271.6507,271.9139,272.8308,270.8199,272.148,273.7351,273.4555,270.7726,271.955,270.0859,270.0859,269.9263,270.2234,272.5948,271.7317,270.1326,272.511,270.2155,271.7888,270.1335,271.0404,270.84,270.8393,271.3433,271.874,272.1055,272.57,272.5093,273.305,273.6783,273.6783,273.8051,273.5826,273.2032,273.1215,273.2845,273.3823,273.399,272.7999,272.3599,272.3599,272.5342,272.8674,272.851,274.3455,272.677,272.8412,274.6852,272.7843,272.8784,274.3971,272.6129,274.3707,272.6198,272.4743,272.3192,271.8152,271.3266,267.798,259.7623,239.8873,212.5504,193.0298,184.8432,183.3494,184.4753,182.1672,195.1873,207.0032,220.0447,233.4021,246.0417,256.887,265.9078
283.6614,283.6442,285.0443,284.5742,284.9945,284.9945,285.166,284.1158,282.897,284.3076,284.4372,284.2124,284.0084,281.9971,281.3913,281.3913,283.442,283.6784,281.2135,281.2135,280.2593,281.2614,281.2536,281.069,280.7208,280.7892,279.4693,278.5757,278.5757,278.154,278.154,278.296,277.3733,276.6587,276.6587,276.6587,277.8469,278.4659,278.4659,275.5627,275.8413,277.6635,277.6635,277.1874,276.5802,276.161,274.912,273.1669,272.8814,272.8814,272.9026,272.9221,272.0812,272.2602,273.9161,271.7939,271.0268,269.9334,270.9023,271.3954,272.1111,270.4618,270.5439,271.6422,271.6422,270.0381,270.2677,271.9473,270.3582,270.1074,270.338,270.671,270.2362,270.0547,271.8706,270.4928,270.1854,271.8593,270.3373,271.9467,272.1648,270.9788,272.2544,274.6,274.6,274.4781,274.502,274.3723,272.3011,274.7119,272.8705,274.533,272.8912,273.1191,273.1191,274.422,272.7577,272.5531,272.8703,274.5274,274.7432,274.643,272.7203,272.1862,272.7195,272.1621,272.7905,274.3011,272.57,272.4106,272.3008,271.8702,270.5468,263.3185,244.599,219.7051,196.8434,187.4354,183.7307,183.0537,182.9896,191.7269,203.1926,218.835,235.3444,249.9295,260.9951,268.0293
281.6642,283.0648,284.4648,284.9514,286.1387,286.1387,284.8133,283.6564,282.9807,282.8271,284.1642,282.518,284.0593,282.4271,281.7209,281.7209,281.5587,283.568,282.0595,282.0595,281.3747,281.2865,280.4469,280.35,279.7174,279.2737,278.7611,278.7818,278.7818,278.0433,278.0433,277.4944,277.3679,276.6318,276.6318,276.6318,277.3645,276.3564,276.3564,275.714,276.0446,275.9487,275.9487,275.3328,274.9532,274.3165,273.7481,273.5701,272.8814,272.8814,272.9026,272.9221,272.0812,272.2602,273.9161,271.7939,271.0268,269.9334,270.9023,271.3954,272.1111,270.4618,270.5439,271.6422,271.6422,270.0381,270.2677,271.9473,270.3582,270.1074,270.338,270.671,270.2362,270.0547,271.8706,270.4928,270.1854,271.8593,270.3373,271.9467,272.1648,270.9788,272.2544,274.6,274.6,274.4781,274.502,274.3723,272.3011,274.7119,272.8705,274.533,272.8912,273.1191,273.1191,274.3572,272.1224,272.6706,272.6744,272.9427,274.5055,272.6348,272.6971,272.7737,272.1071,272.5648,272.7587,272.5202,272.2968,274.079,271.8277,272.4876,272.3326,264.8285,249.5609,223.5594,200.7614,189.1796,183.5372,183.2074,183.093,184.0123,192.2256,212.182,237.9594,255.9553,266.7136,274.545
284.0221,283.6442,285.0443,286.1281,284.7386,284.7386,284.1437,284.0214,282.6385,284.2612,283.166,282.9512,284.1132,282.3677,283.6489,283.6489,283.2764,281.6188,281.2043,281.2043,281.1282,281.3894,280.8537,279.5783,279.4408,278.947,278.5306,278.2666,278.2666,278.7018,278.7018,277.7491,277.5156,278.1616,278.1616,278.1616,276.4755,276.5206,276.5206,275.7347,275.6148,275.614,275.614,274.9975,274.2903,273.6687,274.2042,273.5638,272.7321,272.7321,272.6365,272.6264,272.2377,274.2623,272.8452,274.1931,272.0563,270.3917,270.7084,270.8014,270.9596,271.8842,269.9375,270.1313,270.1313,270.4272,270.1945,270.2373,271.9153,273.012,271.5696,269.8029,269.6986,271.6552,271.9599,272.0511,272.8171,271.8631,270.549,270.2664,270.6228,270.2272,272.0584,273.2679,271.5069,272.5446,272.465,272.1506,272.3417,272.6047,274.3577,272.6761,272.822,274.5919,274.5449,272.8036,272.489,272.6188,274.4154,273.6203,272.6038,272.7808,274.4966,274.556,272.6589,272.6342,274.4187,274.3459,272.4314,272.5239,272.1193,272.3884,273.0777,267.9525,255.7722,230.138,207.8639,192.541,186.4018,183.7,184.741,182.0738,189.1372,207.006,231.8836,254.4654,264.5729,275.3732
283.7242,283.4666,284.686,284.8446,284.5301,284.5301,283.3438,282.1638,284.075,284.4772,285.272,283.0485,282.4998,282.2535,283.7277,283.7277,281.5582,281.1002,281.31,281.31,280.928,281.3894,280.8622,279.5397,279.4307,278.947,278.5306,278.2666,278.2666,278.7018,278.7018,277.7491,277.5156,277.509,277.509,277.509,276.5211,276.5206,276.5206,275.7301,275.6408,275.614,275.614,274.9806,274.2903,273.6687,274.2042,273.5638,273.0393,273.0393,274.6286,274.3126,272.4942,272.4357,274.5592,272.8518,273.7919,272.17,272.2066,270.7109,270.6654,270.6137,270.366,270.1292,270.1292,271.8013,272.4187,270.1345,270.2488,271.714,269.9736,269.4669,269.5256,271.5648,270.1639,270.4142,270.4622,270.1263,271.9166,272.099,272.1682,271.0258,270.5951,270.2758,273.1929,272.5352,272.3195,270.9528,272.2027,272.2314,274.4207,272.7198,272.6191,272.6805,272.7992,274.2334,272.9024,273.0366,272.9288,272.1123,274.1281,272.5659,272.7291,274.5971,272.8255,274.422,272.6537,272.3495,272.5961,271.6299,271.8751,272.268,273.9708,270.8189,260.7852,242.3419,216.3013,195.5395,187.8618,184.1486,183.1496,183.2618,186.7292,201.8576,225.3074,249.7553,264.3283,271.0296
281.4867,283.4053,284.8054,284.768,284.7825,284.7825,284.1437,282.8516,284.3434,285.7432,283.0403,283.1409,284.2999,284.1691,284.0562,284.0562,283.3648,281.5638,279.9722,279.9722,281.3015,281.3866,282.4412,281.0843,279.6699,279.3858,279.2441,277.4939,277.4939,278.1402,278.1402,279.0592,276.7853,275.4194,275.4194,275.4194,277.4863,275.9414,275.9414,275.7743,275.6565,275.6418,275.6418,275.3016,275.8674,273.1013,273.4877,274.6949,272.7502,272.7502,274.4141,272.6945,272.2921,272.5821,274.323,273.9903,272.0242,271.9997,273.3756,270.839,271.7915,270.0115,271.8514,271.868,271.868,270.2985,270.2507,271.6746,270.1254,271.7801,271.6217,271.415,269.539,271.486,271.7148,271.9724,272.0651,271.8625,270.8935,271.727,271.9024,270.3273,272.2615,270.0389,271.7271,272.3573,272.585,273.7773,272.01,272.124,274.2675,272.7041,274.3148,274.1902,271.8965,272.2009,272.8133,275.3046,272.9766,272.791,272.6406,271.5738,272.4509,274.2004,272.5966,272.6332,272.4213,271.433,271.6097,272.4081,272.427,272.5434,274.3624,271.4871,261.9964,246.9744,223.298,200.1936,189.4085,184.5339,183.426,185.1008,187.3004,197.8543,225.9469,250.2792,264.146,272.5257
281.4867,283.4053,284.8054,284.768,284.7825,284.7825,284.2242,282.8241,285.254,285.6132,283.5151,284.4551,285.7109,283.2036,283.4918,283.4918,283.4918,281.0921,280.9245,280.9245,281.3015,281.3866,282.4412,281.0843,279.6699,279.3858,279.2441,277.4939,277.4939,278.1402,278.1402,279.0592,276.7853,275.4194,275.4194,275.4194,277.4863,275.9414,275.9414,275.7743,275.6565,275.6418,275.6418,275.3016,275.8674,273.1013,273.4877,274.6949,272.7502,272.7502,272.452,274.3823,274.1096,271.96,273.4918,271.8943,271.8953,271.9736,273.3727,270.8295,270.1422,270.094,270.7935,271.8156,271.8156,270.0535,272.5488,269.9481,269.9043,269.9932,271.8169,269.9229,269.3467,269.5982,269.6071,271.3028,271.7354,271.9957,271.5108,269.7195,271.6422,269.9764,270.0411,270.2556,272.0006,272.186,271.8807,271.7754,272.6337,274.1832,272.658,274.0948,272.1849,272.5203,272.4214,272.6287,274.5259,273.4443,274.7548,274.6113,272.8371,272.4487,272.52,271.7466,272.696,273.0207,272.6519,272.6247,273.8913,271.1847,273.1778,273.7537,272.7042,270.4519,263.12,244.6621,225.8999,203.8931,189.7874,185.8783,185.1799,183.5288,185.206,197.1479,222.3059,248.2892,261.1876,273.6377
284.5833,284.153,284.334,284.9536,284.9502,284.9502,283.3749,282.9341,282.7149,284.1206,284.2018,285.4251,284.3344,283.5404,283.4918,283.4918,283.4918,279.9802,281.2762,281.2762,280.7271,280.8883,280.6888,280.025,279.557,279.0872,278.8282,278.6187,278.6187,277.6069,277.6069,276.6557,276.4008,276.1972,276.1972,276.1972,276.3155,276.4329,276.4329,275.347,275.3566,274.992,274.992,274.6756,274.0184,274.0194,273.7923,273.4521,272.9941,272.9941,272.9463,274.368,272.3358,271.6309,271.3985,270.769,271.7549,272.2302,272.1371,270.7002,271.6671,271.8759,270.4008,270.3741,270.3741,270.0567,271.7575,271.633,269.6636,271.618,271.8887,271.5998,269.4177,269.1114,269.7868,269.1537,271.3391,271.5792,269.5769,271.5388,270.0891,271.6794,271.7652,271.9503,271.9936,271.8883,270.0791,272.9436,272.2595,274.5457,272.7414,271.8024,272.524,272.5094,272.5048,274.4221,273.4674,275.5452,273.1281,272.7939,274.5362,272.8607,274.3563,272.6884,273.2085,275.5091,274.6564,272.7655,273.9549,272.8241,269.5892,272.0459,271.2754,271.9531,264.5683,253.7585,228.8774,206.1364,190.7753,183.668,183.4363,185.2696,184.7614,193.9497,216.823,242.3277,259.8506,271.58
284.245,284.0325,284.8353,286.2354,285.3598,285.3598,282.6815,282.8069,282.1163,282.1163,282.6978,282.4562,283.9486,284.2494,283.7864,281.1024,281.1024,281.1729,279.9842,279.9842,280.8241,280.8883,280.6888,280.025,279.557,279.0872,278.8282,278.6187,278.6187,277.6069,277.6069,276.6557,276.4008,276.1864,276.1864,276.1864,276.3155,276.4329,276.4329,275.347,275.3566,274.992,274.992,274.6756,274.0184,274.0194,273.7923,273.4521,275.4183,275.4183,274.4224,272.4542,272.3059,272.5252,273.7736,272.2917,271.4798,271.6144,272.1256,270.9052,272.1284,272.0061,271.6994,269.8405,269.8405,269.8888,270.1986,271.5891,270.2438,270.1467,270.1745,272.2564,269.8262,269.3274,271.781,270.1516,270.2886,269.3845,270.0702,271.4695,270.1976,269.7353,270.0168,271.7579,270.0572,271.6636,270.1454,270.5209,273.473,274.4281,272.9189,274.2318,272.533,274.2065,272.3676,274.5509,275.7648,273.175,272.8623,272.49,274.4014,272.808,274.6223,274.5106,273.0927,275.4383,275.2854,272.8037,271.9929,271.7625,269.947,266.8251,270.256,271.1467,269.1235,256.8117,235.9801,209.5538,191.2887,184.0169,183.4033,185.0564,184.1433,192.5619,212.5154,236.5921,258.4001,271.1613
282.0536,283.5331,284.9332,285.9752,284.575,284.575,284.0816,283.9806,282.1163,282.1163,282.6978,282.4562,283.9486,284.2494,283.7864,281.1024,281.1024,281.1729,279.9842,279.9842,280.8241,280.8883,280.6888,280.025,279.557,279.0872,278.8282,278.6187,278.6187,277.6069,277.6069,276.6557,276.4008,276.1864,276.1864,276.1864,276.3155,276.4329,276.4329,275.347,275.3566,274.992,274.992,274.6756,274.0184,274.0194,273.7923,273.4521,275.4183,275.4183,272.5608,272.695,274.2014,272.2921,274.1676,272.1631,270.4705,271.3293,273.2734,271.1133,273.2982,270.4754,270.5343,271.5675,271.5675,269.5127,270.24,269.8764,269.8637,271.422,270.0057,270.1497,269.7928,268.5013,271.2364,272.7229,269.9914,269.4172,269.6443,269.2156,269.8964,270.033,271.7217,270.2531,269.6584,269.8806,271.7748,270.8681,273.1558,272.0569,274.7026,272.8195,272.5215,272.3042,272.5084,273.0296,274.8207,273.2331,272.9643,274.4544,272.7079,272.4922,273.081,274.6272,273.1272,272.9997,272.781,272.6513,272.0842,272.7724,267.5418,266.8925,263.3031,269.5632,269.9416,258.8534,236.2613,212.2805,193.1706,186.4876,183.5136,184.9624,183.1553,190.776,210.3795,238.7282,256.0209,271.5919
285.5882,284.1129,285.513,284.7134,284.5082,284.5082,283.6966,282.2965,283.7544,283.7544,283.6747,282.116,284.5963,282.4134,282.1201,281.3117,281.3117,281.2867,280.7483,280.7483,282.215,279.7614,278.9007,278.4236,278.9417,278.6137,278.9518,280.3271,278.5593,276.8988,276.8988,277.7803,276.3141,276.0925,276.0925,276.1834,277.4579,275.6886,275.6886,275.6374,277.5555,277.0015,274.0423,274.9546,274.5903,273.1174,273.1111,274.5781,272.6494,272.6494,272.5171,274.3835,274.3886,272.2123,272.3933,272.1174,272.1023,272.2788,271.3434,273.5821,272.3611,272.8325,269.8546,269.9318,269.9318,271.3863,269.9543,269.6646,269.4364,269.7876,269.5541,269.7029,269.6681,269.4696,269.9258,271.5214,271.1476,268.5572,271.5898,269.9348,270.0357,271.6145,270.1205,270.5087,270.7542,270.4616,271.9818,272.2129,271.1639,271.2104,272.2033,272.7794,274.0151,271.0893,272.5384,274.3728,274.5773,273.0096,275.3109,274.5496,272.5894,274.429,275.6371,274.5791,272.5576,274.3302,274.3024,272.8088,270.9803,268.3813,266.0946,256.3465,264.0474,267.1442,268.0508,258.9993,239.9298,213.445,194.3761,186.2434,183.6584,183.426,184.5116,192.184,210.6312,236.3809,259.1025,273.2116
283.5547,284.1348,284.4583,284.7546,285.9084,285.9084,284.1814,282.7813,282.527,282.527,284.1039,283.7899,282.2703,282.1403,283.5282,283.3167,283.3167,281.659,280.3358,280.3358,281.9867,279.6631,278.2125,279.1812,278.1366,278.1421,278.3848,280.0101,278.1133,276.3406,276.3406,276.9245,276.2363,276.3248,276.3248,277.4623,275.8943,274.9785,274.9785,275.5082,277.3339,275.6396,275.2778,274.4377,272.4815,272.933,272.7336,272.9905,272.5111,272.5111,272.691,272.4442,272.7194,274.2507,271.7574,270.4716,271.045,271.5575,272.2925,271.7695,273.2269,270.7733,271.71,271.51,271.51,269.8806,269.2184,269.6541,269.6848,269.4161,269.6285,269.4781,271.092,269.4788,269.4186,269.713,269.5235,269.6852,269.5928,269.8266,272.493,270.2855,269.431,270.5061,272.7896,272.7346,270.589,273.2272,273.4172,272.6635,274.8578,272.6884,272.624,272.4515,272.428,272.6473,272.4966,272.5739,272.8735,272.8291,272.3428,274.3843,273.0055,272.9248,274.1444,272.5233,272.1856,273.0882,270.8688,266.802,262.8037,263.4133,254.9607,260.7626,261.3173,255.7872,239.2429,213.64,194.9316,187.3723,183.8434,185.444,186.1839,193.1212,210.6425,238.8207,258.7265,273.5894
284.6863,283.2862,283.4809,284.881,286.2811,286.2811,284.3558,285.2166,285.6807,285.6807,284.0369,283.7978,281.8284,280.7559,282.1905,283.3167,283.3167,281.659,280.3358,280.3358,279.9773,278.9785,278.5446,278.5341,278.9011,280.2621,278.1857,278.399,277.1407,276.366,276.366,276.4473,276.7598,277.5206,277.5206,275.4959,277.201,275.3211,275.3211,275.3173,275.4055,275.3771,275.1208,273.4884,272.58,273.0109,273.2688,274.5753,272.5662,272.5662,272.2945,272.5262,274.4613,274.4338,273.6864,272.1339,273.3453,271.1386,273.3174,270.7134,271.9761,270.5007,272.853,269.8578,269.8578,269.3367,271.0014,269.0063,269.2513,269.5187,269.5162,269.1534,269.3479,269.0925,269.2749,269.4171,268.1535,269.4967,269.7295,271.5569,270.8878,271.6589,271.5427,270.5559,272.4774,270.346,270.4284,271.9444,271.4005,275.1149,273.1271,274.3539,274.1884,272.4435,272.3983,271.2618,272.5285,271.309,272.515,272.6562,272.1013,272.5631,272.5746,271.396,272.4206,274.2125,273.4117,270.2108,269.9175,270.9315,269.426,265.7141,263.1217,251.7629,249.617,251.255,235.9948,211.98,193.7992,186.2876,185.5524,185.6136,184.8741,192.8579,212.9694,235.7478,256.9359,273.5189
284.6863,283.2862,283.4809,284.881,286.2811,286.2811,283.6114,282.9044,286.5062,286.5062,284.0369,283.6887,281.5071,281.4539,281.5697,281.9556,281.9556,280.3925,280.1546,280.1546,281.1026,279.6231,279.7301,278.5446,278.5807,280.4694,278.5547,278.1604,278.0113,277.8632,277.8632,276.6005,277.7883,277.5008,277.5008,275.8199,275.3211,275.3211,275.3211,275.3211,275.5541,274.6623,276.3267,273.8429,273.4908,274.6753,272.8405,274.6355,272.6471,272.6471,272.642,273.0363,274.3271,272.6588,272.4419,272.2791,272.3169,272.1086,271.3668,272.0096,270.4988,270.6321,269.8578,269.8578,269.8578,270.1172,271.1655,268.9978,269.3131,269.2675,269.2937,269.4408,268.9623,269.5287,269.0884,269.3958,270.9771,269.7709,269.6562,271.8064,272.8987,270.009,269.6725,269.873,269.8406,270.3059,270.2742,270.3326,272.9938,273.8674,274.1988,272.3369,272.1897,272.6357,272.9792,274.3626,273.1582,272.6766,272.6255,272.5606,272.9102,272.9276,272.3986,272.4686,272.2901,272.3992,271.9591,271.2116,273.2174,273.6906,272.553,269.3327,262.4769,261.8945,258.8088,243.1194,229.4718,210.4733,193.3846,186.0054,183.7833,185.516,184.7103,193.3571,214.1057,241.3094,259.682,273.3206
281.9402,283.3429,284.7435,284.3645,285.5885,285.5885,282.8902,282.3932,282.3932,282.3932,282.3932,283.6083,281.841,283.4644,283.3693,281.7902,281.7902,281.2326,281.2563,281.2563,279.6981,279.5068,278.8083,278.5551,279.2007,278.8864,280.2096,278.2423,277.9547,276.8662,276.8662,276.8451,276.2979,276.0542,276.0542,275.823,275.3211,275.3211,275.3211,275.3211,275.3156,274.9783,275.2613,273.9031,273.6024,272.9379,273.3797,273.0279,274.5779,274.5779,272.9305,272.7115,272.3589,272.8807,274.1413,271.8071,270.8668,272.0069,270.17,272.0595,272.1784,269.8578,269.8578,269.8578,269.8578,273.1866,271.6439,271.1119,269.424,269.4397,269.2848,269.3406,269.4919,269.4566,269.5084,269.4579,271.3715,271.4689,269.8264,271.4361,270.0284,271.3184,269.8866,271.5561,269.9126,270.3131,272.4738,270.546,270.6512,271.9192,272.0251,272.3136,274.3316,273.076,274.7401,275.9769,274.6994,272.8187,271.617,272.6039,274.4856,275.2975,274.3943,272.7298,272.4422,271.5033,272.9854,272.2894,272.5175,274.9137,271.8821,268.993,269.2766,267.7109,261.646,254.3746,232.9317,212.2306,193.8735,186.0886,185.5591,185.615,184.684,193.7393,215.7249,243.8345,261.3133,269.7779
281.9402,284.2575,285.3233,284.4973,285.2894,285.2894,282.5925,282.3932,282.3932,282.3932,282.3932,283.6083,281.841,283.4644,283.3693,281.7902,281.7902,281.2326,281.2563,281.2563,279.6981,279.5068,278.8083,278.5551,279.2007,278.8864,280.2096,278.2423,277.9547,276.8662,276.8662,276.8451,276.2979,276.0542,276.0542,275.823,275.3211,275.3211,275.3211,275.3211,275.3156,274.9783,275.2613,273.9031,273.6024,272.9379,273.3797,273.0279,274.5779,274.5779,272.9305,272.7115,272.3589,272.8807,274.1413,271.8071,270.8668,272.0069,270.17,272.0595,272.1784,269.8578,269.8578,269.8578,271.8857,270.1496,271.4129,269.5676,269.2568,269.3554,269.3467,269.4529,271.0762,271.226,269.5327,269.5123,269.606,271.2518,269.33,271.0102,269.1229,269.5387,271.541,272.7111,271.7367,270.3479,270.5076,272.3171,269.8769,269.4011,271.1756,273.9166,274.4632,272.7492,275.3321,273.377,275.0826,272.8441,272.5068,272.378,273.1338,273.2334,272.9742,274.3029,272.0895,271.9481,272.106,274.0607,272.052,272.6395,272.0492,273.2617,271.9642,270.6796,268.887,259.8148,242.2543,214.6516,194.3384,187.3851,183.961,185.4566,186.0922,193.2754,216.2976,244.4524,262.1297,268.326
287.4132,284.8497,284.8594,285.8968,284.5822,284.5822,283.7933,282.3932,282.3932,282.3932,282.3932,283.6263,282.4458,284.0025,283.6869,283.2511,283.2511,281.6036,281.2563,281.2563,279.6981,279.5068,278.8083,278.5551,279.0062,278.9235,278.0262,279.1663,278.407,278.0853,278.0853,279.1419,279.0606,276.1771,276.1771,276.0343,275.4334,275.6888,275.6152,277.5235,277.4877,277.4511,275.2516,274.0204,273.4509,274.6742,272.6786,271.782,272.9188,272.9188,274.5389,272.8735,272.7907,272.6509,272.692,272.6219,273.8766,270.8665,272.0086,270.5479,270.6126,270.0621,270.3321,270.0388,271.8206,271.5052,269.4778,269.2404,269.4782,269.2573,269.1923,268.7466,269.1568,270.9838,269.4181,269.2699,269.9535,269.8437,271.7479,269.4573,269.8696,271.3874,269.9597,270.0499,271.8086,271.6032,269.7265,270.096,269.9977,269.408,271.1891,273.9155,272.6922,274.3697,272.7712,272.806,272.0655,272.4993,272.5611,274.5293,274.8197,275.815,274.526,272.6324,272.6078,272.6299,272.3689,274.0394,272.2354,272.3283,271.9174,274.2809,274.9941,272.6325,268.8123,259.9276,242.2166,216.9358,195.9414,187.5183,183.8098,183.4017,185.0059,194.3676,216.717,243.7046,260.7248,268.4729
282.6037,284.7002,286.1003,284.8817,283.9169,283.9169,283.8325,283.8461,282.1385,282.1385,281.9392,281.65,283.4226,284.5131,284.5131,281.2388,281.2388,282.9077,279.6035,279.6035,281.5963,279.0699,278.7809,278.4526,278.0436,277.9784,278.5255,278.5255,278.2255,277.13,277.13,277.9277,276.5787,278.8013,278.8013,276.3641,275.8785,277.3606,275.4845,275.7512,275.8214,274.9596,273.5654,273.29,272.9229,272.9213,272.8595,272.7441,272.9034,272.9034,273.1441,272.9345,274.5379,274.4447,272.3836,272.0246,270.6048,272.1714,271.7483,269.7305,270.1569,271.6403,269.588,270.231,270.1982,269.7163,269.8582,271.7059,268.915,269.4978,268.1558,270.7312,269.3617,268.6906,268.8388,270.8926,269.3057,269.5817,268.8459,271.1625,272.5753,270.2421,270.0007,269.5114,271.5264,269.8636,269.7822,271.6848,270.6872,269.9141,271.8056,272.4052,274.1626,272.7746,272.6019,274.1852,272.7939,272.7524,272.6537,274.4471,274.7886,274.7182,273.071,272.5351,272.5483,274.3814,272.6211,272.5184,271.2859,272.745,272.8191,274.5599,274.2558,270.6811,265.8506,256.2444,238.1266,219.047,196.7393,186.8522,183.7697,183.5206,186.4057,194.5843,214.6012,240.2336,257.5408,263.7384
286.0054,284.5948,285.9949,284.9274,283.8582,283.8582,283.8276,283.8461,282.1385,282.1385,281.9392,281.65,283.4226,284.5131,284.5131,281.2388,281.2388,280.5843,281.9363,281.9363,281.5963,279.4821,280.6261,278.7406,278.7461,278.4918,278.5255,278.5255,278.2255,277.13,277.13,277.9277,276.5787,278.8013,278.8013,276.3641,275.8785,277.3606,275.4845,275.7512,275.8214,274.9596,273.5654,273.29,272.9229,272.9213,272.8595,272.7441,272.9034,272.9034,272.733,272.4568,273.0959,272.5847,272.6212,272.3419,271.8324,272.1284,270.428,271.699,270.0936,270.194,271.5571,269.6446,271.5914,269.8557,271.5989,269.9875,269.7071,269.1323,269.1796,269.2079,269.2864,268.6086,269.2001,268.6809,269.2774,269.3377,270.9438,269.8978,271.5525,272.7134,270.1242,271.4227,269.9461,269.8214,269.9383,271.7902,270.4298,271.881,271.9164,272.0079,271.5779,273.7123,272.3893,272.5598,275.4737,274.5223,272.6039,272.7736,274.0734,272.4325,274.3138,272.5823,272.2608,274.38,272.536,272.5813,272.3593,273.1286,275.5694,274.5077,272.5448,271.9406,267.3335,258.7719,245.0258,220.4431,196.2643,187.0417,185.2295,185.1532,185.9861,191.9226,207.8973,228.7833,244.3595,252.2036
286.4781,285.1184,286.5185,285.4241,284.648,284.648,282.5783,282.2913,281.6744,281.6744,283.6659,282.0059,282.1697,283.4979,283.4979,284.0055,284.0055,280.5843,281.9363,281.9363,281.5963,279.4821,280.6261,278.7406,278.7461,278.4918,278.5255,278.5255,280.0756,277.4273,277.4273,276.4896,276.1872,276.0492,276.0492,278.4194,276.0553,275.2638,275.6504,277.4328,276.8656,275.235,274.9835,273.0756,272.845,273.0205,274.9685,274.8336,272.7152,273.0383,272.489,272.4353,272.9472,274.2188,271.5659,271.9528,274.0696,273.8445,272.2083,271.9651,272.5639,270.4636,270.2884,271.7377,270.087,269.8288,271.6385,272.1399,269.6688,268.9096,269.1212,269.3603,270.9997,270.9348,269.0602,268.6042,268.4598,269.0745,269.3721,268.8934,269.7212,271.7257,271.7015,269.7251,269.4683,269.5701,269.633,271.8488,272.1173,270.633,269.9997,270.1584,270.037,271.826,272.3637,273.7856,274.2907,272.9544,272.4171,271.6971,272.0436,272.8457,272.6993,272.7491,272.6644,274.2842,272.3411,274.0573,272.3672,274.3557,274.4933,272.7672,274.4593,272.7536,265.5995,258.4292,243.8419,219.0052,196.565,187.0787,185.1143,182.2332,183.9011,187.9129,197.85,213.2058,224.4221,229.599
286.1114,284.7802,286.1803,285.4131,285.2431,285.2431,283.1838,282.4124,282.6074,282.6074,282.0473,282.4793,284.4958,283.9118,283.9118,284.0055,284.0055,281.3329,281.0584,281.0584,279.2675,279.4799,278.8526,279.0579,279.0252,278.931,279.0585,278.0853,277.9474,276.4619,276.4619,275.9557,276.0476,276.5123,276.5123,277.826,276.1395,277.2341,275.2428,275.6149,274.774,273.1443,274.8481,274.85,274.7012,274.7677,274.8926,274.7875,272.7996,273.085,275.1023,272.892,272.9722,275.0254,272.7802,272.507,272.2464,274.3332,273.6936,270.5334,270.2757,270.2611,270.3313,271.8557,271.7453,269.7545,269.83,269.8356,269.6372,268.8053,269.3242,268.7256,269.4623,269.3755,269.1791,269.0587,268.3268,267.1921,268.8603,269.1752,269.358,271.188,270.0313,271.5371,271.2097,269.463,271.5202,271.7937,271.9324,270.4408,271.8858,271.7906,270.1607,271.9758,271.9825,270.9826,273.8399,272.5481,272.3066,272.3465,272.549,274.3689,275.3325,274.5397,272.7122,272.6959,272.4483,271.8987,274.0893,272.5327,272.4256,274.1524,273.2001,270.4633,265.105,249.0668,235.7251,216.4358,196.6239,187.2213,183.7626,183.1066,183.1547,185.3698,190.5999,197.1704,203.3474,209.0077
286.1114,284.7802,286.1803,285.4131,285.2431,285.2431,284.3924,284.8584,284.7419,284.7419,284.6621,284.6621,282.3009,282.2952,282.2952,283.368,281.521,283.0115,280.9582,280.9582,278.9836,280.5701,278.3451,278.1653,280.1741,278.3022,278.5387,278.6412,278.3507,275.3217,275.3217,276.1423,276.0577,277.6621,277.6621,278.6763,275.9606,275.7999,275.4149,275.4338,275.066,273.58,273.444,273.2662,273.0235,272.9692,272.8453,273.2284,273.0225,273.3036,273.1776,274.7202,274.432,272.5201,274.3213,274.3846,272.5273,272.517,272.2298,271.8088,272.5645,270.653,270.8115,269.9088,271.6893,271.6903,271.4646,269.7724,271.2724,271.0653,269.4246,268.9544,269.3019,268.9338,269.0542,267.2961,269.0824,268.5809,269.1635,267.5659,267.8409,270.8499,271.5446,271.3031,269.1606,269.6707,271.4119,269.7675,271.7079,272.0039,272.1129,270.3922,271.8448,270.5164,270.2198,271.8528,272.2963,274.1718,272.3921,272.3907,272.5582,272.5543,273.0403,274.4099,272.3486,274.3649,273.0172,274.1722,272.4672,272.4496,273.7664,271.3823,272.3709,267.0238,261.3087,257.2682,242.2722,216.4144,196.6774,187.4078,185.3242,183.2964,183.7936,186.9325,192.908,198.0586,199.3314,201.5807
285.783,284.7106,285.2904,285.4131,285.4131,285.4131,284.0969,284.0969,282.4072,282.4072,284.6621,284.6621,283.8292,282.1272,282.1272,281.8242,283.2778,281.6044,279.378,279.378,279.491,278.9735,279.0032,278.7221,278.4658,277.8433,277.9433,279.888,278.4981,275.6886,275.6886,275.5564,277.5344,276.1228,276.1228,278.3881,276.2514,275.6205,277.3629,277.2524,275.1121,273.5235,276.2754,273.4883,274.7701,272.9008,274.6306,273.1422,273.0292,272.6891,272.8824,273.026,274.4382,272.6132,272.512,272.8029,274.35,272.663,271.1404,270.038,270.4782,273.2801,272.9455,270.5221,269.9544,270.2495,269.5602,269.5333,269.3819,269.5213,268.9734,269.1727,269.1591,270.9776,269.2094,267.8073,268.2755,268.3857,269.0554,267.3407,268.9577,269.17,269.158,269.6736,269.7694,271.3163,269.3062,269.988,270.0139,271.7849,273.3705,271.9764,270.0575,270.4261,271.7832,270.0207,271.9959,272.4299,272.8564,272.8107,271.6375,272.2856,274.3632,272.7334,272.7823,273.0199,275.5663,273.12,274.6094,274.0767,271.4186,271.9772,269.8028,270.4322,267.9694,261.2524,244.7365,218.9776,197.6551,187.5898,183.8856,183.449,188.8179,194.2131,200.2533,205.6965,210.6092,214.6487
283.3237,283.3105,284.271,285.6324,285.1791,285.1791,284.2807,284.2807,282.7242,282.7242,284.6621,284.6621,283.9524,282.4605,282.4605,283.6732,283.5017,281.6838,280.8623,280.8623,278.5748,280.2496,278.2081,278.4405,280.2313,278.5512,277.472,277.2914,278.3816,276.1997,276.1997,276.0808,275.8781,276.185,276.185,276.1594,275.9802,275.6958,275.6732,276.5932,275.3215,275.1489,275.3389,273.9457,274.9835,273.4157,273.1842,275.6014,274.8247,275.6321,273.0732,272.7539,272.7624,272.5897,274.2332,272.17,272.3246,273.2153,271.9174,270.3717,271.8982,272.0574,272.0763,271.9279,272.8732,271.6765,269.5953,269.6119,269.1466,269.2125,268.0871,268.9575,269.2467,269.4114,269.3211,270.5635,268.5581,268.5658,268.1645,269.0114,268.8933,267.0016,269.0397,270.9911,271.6418,269.8906,269.8456,269.7289,272.3711,270.2235,271.7665,272.0522,270.4713,270.3658,270.0385,270.2238,270.4173,273.5505,274.5857,275.0986,272.774,272.3039,272.764,274.6772,274.6738,274.6766,273.1522,274.5919,274.4797,272.6473,272.6238,273.6243,272.1445,272.0353,269.74,264.7155,248.9691,220.4546,197.7976,187.6705,185.3835,183.5678,191.0961,198.2949,205.9354,213.5888,221.029,228.4164
280.8625,282.2875,283.701,285.1079,284.7248,284.7248,283.1698,283.1698,285.2395,285.2395,285.0473,284.0847,282.5726,284.0463,284.0463,283.5159,281.3827,281.3853,281.4568,281.4568,279.326,277.9133,279.007,278.2408,278.5362,278.58,279.4146,277.0058,278.2592,277.8936,277.8936,276.0255,275.8147,275.9634,275.9634,275.6923,275.8046,275.5137,277.2849,275.409,276.7723,274.1315,276.3414,273.8222,275.7798,275.5659,273.3298,273.3378,274.9388,274.8562,274.4749,274.4149,272.6501,274.4437,274.2328,272.0691,271.3701,269.9624,270.442,270.427,270.6211,270.2498,270.2177,271.8474,270.8834,271.7164,271.2017,268.899,269.3365,269.0438,269.2649,268.7885,268.9559,268.837,268.7224,269.2737,269.0872,269.1431,268.2022,268.9819,267.1891,267.3376,267.5626,269.5312,271.4415,270.2591,271.4366,271.5363,272.4937,270.3561,270.1348,272.6522,270.6692,271.984,270.4802,269.8181,270.3584,272.4634,274.9854,273.1973,272.7037,272.1974,274.3447,274.6559,272.9618,275.2536,272.8807,272.7726,272.4521,274.2603,272.6257,272.7645,274.5148,273.8579,271.5062,267.1266,250.4752,222.3592,198.0998,187.4119,183.688,183.5201,193.3029,201.7767,210.67,220.2238,230.5733,242.5881
280.8625,282.2875,283.701,285.1079,284.7248,284.7248,283.1698,283.1698,285.2395,285.2395,285.0473,284.0847,282.5726,284.0463,284.0463,283.5159,281.3827,281.3853,281.4568,281.4568,279.326,277.9133,279.007,278.2408,278.5362,278.58,279.4146,277.0058,278.2592,277.8936,277.8936,276.0255,275.8147,275.9634,275.9634,275.6923,275.8046,275.6306,275.738,275.3408,275.3513,274.7971,276.5248,274.8979,273.1261,273.2661,275.4601,274.8041,273.0784,274.4279,272.4805,272.7747,272.6731,272.5883,274.2974,272.2672,272.2137,271.5602,271.7787,272.9844,270.523,271.8952,270.3511,270.607,272.7925,271.4665,269.347,269.8279,270.0244,271.2015,268.839,267.3685,268.1856,268.8714,269.2966,268.9959,267.4359,267.6653,267.4045,267.989,267.5722,268.0131,267.3948,269.4131,271.7463,272.4287,269.8335,269.9278,269.7617,271.5287,270.1534,270.0418,271.827,271.8553,270.2331,270.2152,271.8696,270.9277,271.8778,274.0849,272.4624,272.1234,272.7999,274.1746,272.3206,272.8344,274.4994,274.5854,272.8035,272.6003,272.1143,272.5236,274.4121,273.6837,272.6664,266.9214,250.8764,223.3105,197.7447,186.1062,183.6357,185.1337,195.2482,204.8895,214.9395,225.6163,237.4481,251.6109
284.7769,284.0561,284.5566,285.8309,284.4308,284.4308,282.6892,282.5535,282.0905,282.0905,283.9886,283.9886,282.7859,282.1541,282.1541,281.174,280.7295,280.1931,281.0458,279.8689,279.8689,279.8689,279.8689,279.8689,279.8689,279.8689,278.0187,276.254,278.0115,278.9245,276.924,276.4122,276.0596,275.8547,275.8547,275.9695,275.9262,277.5136,277.1882,274.9143,274.9796,274.2192,275.2367,274.808,272.8904,272.9724,272.9622,273.3607,273.3873,273.1666,273.1387,274.5407,274.3846,272.4565,272.6344,272.4536,272.5544,274.1245,272.7165,272.2841,272.0497,273.3689,273.0835,270.3048,269.8866,271.4637,269.7307,269.7183,271.4491,269.4982,270.8074,268.9837,267.3376,268.178,269.1521,267.4272,269.0627,270.3279,269.0703,267.4066,268.8304,267.2609,269.8286,269.3025,269.6321,269.7195,271.1269,268.9372,271.1884,269.9356,270.0781,270.0487,270.2717,270.1441,272.5912,270.4289,270.5246,273.4155,272.1409,271.7793,272.3222,274.7729,274.316,272.3392,271.8512,274.1059,272.6643,274.3179,274.4865,274.2615,272.4821,274.1847,272.5948,271.4376,268.5456,263.8383,247.9218,221.4961,196.2453,187.2661,183.5098,185.1232,196.9413,207.6911,218.6533,230.1007,242.5609,256.8128
287.1157,285.5811,285.004,286.1761,284.776,284.776,283.3183,283.199,283.8307,283.8307,283.9886,283.9886,282.6237,282.0131,282.0131,281.0194,279.8076,280.8188,279.8689,279.8689,279.8689,279.8689,279.8689,279.8689,279.8689,279.8689,276.424,277.7053,276.7656,277.1762,276.6868,277.887,276.0428,276.1354,276.1354,275.8871,275.7396,275.6471,275.4788,275.4898,276.8972,275.4059,274.965,273.1889,273.2381,274.6985,274.6142,272.8055,274.6315,275.3286,273.2263,272.9073,272.827,272.739,274.2455,272.5435,272.0279,274.2589,274.0069,272.1528,270.7365,271.9644,271.9655,271.6446,269.768,270.0583,272.0966,269.5868,271.3723,269.4558,269.5977,269.426,269.1316,269.2822,267.8838,267.7285,269.1504,269.0786,269.006,268.8255,267.2555,267.7584,267.8346,267.599,267.5435,269.1982,270.6993,271.2583,271.5211,271.6405,271.9408,271.5812,270.1121,271.767,270.8514,270.7122,270.6895,270.7439,270.5021,270.0101,272.0515,272.4168,274.1969,272.4781,272.2691,272.5082,272.3694,272.0673,272.4661,272.6112,272.6825,272.3848,274.0146,271.4716,267.6006,257.9065,242.8998,216.3883,195.3628,185.9161,182.1379,184.3474,198.5947,210.4067,221.9719,233.6829,246.0151,259.376
287.2595,286.6383,286.4041,285.9613,284.7239,284.7239,283.3866,282.727,282.7378,282.7378,284.022,283.9886,282.7429,282.6663,282.6663,280.7115,279.2903,279.2903,278.9686,279.8689,279.8689,279.8689,279.8689,279.8689,279.8689,279.8689,278.2291,278.1075,279.2633,276.9273,276.2534,276.802,276.3503,276.3298,276.3298,278.0715,275.5278,275.1783,275.5511,277.4288,275.6852,275.3027,275.1036,275.4846,273.1287,274.7701,273.0804,272.8207,273.0586,272.8163,273.1768,273.0436,273.0928,273.0629,272.1376,272.6237,274.1653,272.2849,272.152,270.6397,270.7134,269.988,269.9765,270.1885,271.8215,271.8109,270.207,269.8792,271.6672,271.4966,270.9423,270.5698,269.1265,269.2636,269.0199,269.1363,267.5805,267.1199,267.1457,267.3845,270.1842,269.2297,270.1996,269.0251,268.9596,270.12,269.5348,272.1015,269.4675,270.6076,271.342,270.6829,269.8722,271.652,271.8138,272.8978,270.4053,271.9021,271.7881,271.8949,272.2614,272.5752,272.7974,272.4042,274.0732,272.5563,272.4536,272.4736,272.4586,271.7926,274.1322,272.3773,272.5421,272.9788,268.3295,257.6407,234.6292,211.6927,192.6095,185.3968,183.0505,185.2254,200.8527,213.4727,225.1439,236.6624,248.4217,260.6602
287.2832,286.8639,286.165,284.7649,283.9814,283.9814,282.9158,282.524,282.7883,282.7883,283.1338,285.3282,282.5348,284.0492,284.0492,280.8378,279.9233,277.2179,278.7214,279.8689,279.8689,279.8689,279.8689,279.8689,279.8689,279.8689,279.8569,278.1922,277.4577,277.3362,276.6541,276.2569,277.7134,275.5705,275.5705,276.0083,277.3013,275.4721,277.3205,275.8018,277.0293,275.4276,274.1345,273.2239,273.0532,274.7451,274.7213,274.663,274.737,274.4991,272.8497,273.0598,275.7675,274.3445,271.9641,272.5846,274.0725,272.099,270.0749,271.0816,272.363,271.3648,270.0736,271.7736,271.7978,271.8544,271.8912,271.6992,271.3205,269.7831,271.0624,267.2503,268.6842,268.8962,267.2513,268.9585,268.9316,268.7885,266.8531,268.7552,270.2575,270.6802,269.1419,267.3167,267.2902,267.3618,270.29,270.4465,267.8379,267.974,270.4737,272.2629,272.5263,269.8679,269.9004,271.7217,271.9272,271.7501,269.8516,271.6722,273.0813,272.5215,274.963,272.8606,271.8201,272.5388,274.412,274.3576,272.4735,274.1189,272.7385,274.3705,274.3605,272.8561,266.2682,252.3619,229.4883,206.396,191.0513,184.6808,183.1114,185.8289,205.1807,217.1776,228.4041,239.3526,250.3294,261.4146
287.2832,286.8639,286.165,284.7649,283.9814,283.9814,283.2876,282.9073,284.2291,284.2291,284.1414,284.301,284.067,283.9671,283.9671,281.9238,279.8714,278.618,278.7214,279.8689,279.8689,279.8689,279.8689,279.8689,279.8689,279.7632,278.4568,277.877,278.0746,278.1445,277.7026,276.7908,275.8661,277.4055,277.4055,275.5873,275.7127,277.324,275.4296,275.5993,274.9501,274.4673,276.451,275.7228,272.968,272.7564,272.918,274.6329,274.6382,274.5343,272.4263,274.3971,274.7814,274.6853,273.1103,272.5239,273.6317,270.9687,270.8487,272.413,274.2705,272.329,271.8615,270.0201,269.8427,269.8788,271.8989,271.502,269.2365,268.7847,267.5661,268.7755,267.022,268.6398,267.413,269.985,267.2435,268.7576,269.4254,267.2178,268.6513,267.4069,268.7471,268.7149,266.6719,268.5669,267.1891,268.5458,268.3738,266.8652,268.5788,269.8929,271.6031,269.9553,269.6722,269.8172,271.666,269.8282,271.3002,269.7275,269.8704,272.8913,272.3607,274.269,272.5537,271.9732,271.7159,271.0282,270.2881,269.1247,268.3641,266.8264,264.3594,259.691,251.9689,239.7398,225.2541,211.6154,201.5168,197.0988,196.8209,202.1568,210.8,221.5599,231.8332,241.9611,252.0462,262.1785
287.4272,286.0271,285.8221,284.422,284.3695,284.3695,283.1946,283.1934,284.261,282.8609,282.7413,283.9671,284.4974,283.7101,283.1606,281.9444,280.5485,280.0181,278.7309,279.4839,279.2007,279.3663,279.7854,279.8636,279.8689,279.1836,278.0318,276.7365,276.7186,276.7444,276.3025,275.7227,276.9976,277.1778,277.1778,276.9523,275.5765,276.4895,275.3441,275.6468,276.3502,275.4163,275.2676,274.9479,273.9894,272.6502,272.7952,273.2328,273.2381,273.1342,273.0788,272.997,273.3813,274.7419,274.5038,273.529,272.2316,272.1693,271.6134,272.2906,272.8704,272.5436,271.577,270.1769,269.9128,271.2789,270.6324,270.9969,269.5968,268.1967,268.9662,269.0019,268.4221,267.2853,268.4429,268.5849,268.2748,267.4455,268.0253,267.4455,268.1889,266.8856,267.347,268.4563,267.0562,267.1668,267.8555,267.1457,267.0436,268.2653,268.8451,270.2452,270.2029,271.141,269.7837,271.1837,271.5475,270.1473,269.9001,270.5309,270.9114,271.4912,272.2756,272.8135,271.8826,270.4231,269.606,268.5687,267.1666,265.5327,263.4108,260.6347,256.7138,251.3233,244.1401,234.6754,224.523,215.2267,208.0699,205.0736,206.0183,210.4646,217.3486,226.1666,235.3876,244.573,253.7209,262.8985
287.5319,286.1317,285.4796,284.3113,284.3695,284.3695,283.1934,283.1934,284.2289,282.847,282.4531,283.8532,284.4214,283.6984,283.0934,281.6933,280.2932,280.154,278.7539,278.6397,277.8755,278.018,278.8603,278.4635,278.5258,278.1068,277.2037,278.1366,276.7531,277.2477,276.1114,275.0349,275.5975,275.7777,275.7777,275.5522,276.3501,275.2471,274.5096,275.2893,275.3398,275.5096,275.6201,275.9361,274.536,273.1359,272.6751,273.9966,272.5965,273.073,274.4731,274.2558,272.8561,273.3418,273.3698,273.7961,272.396,273.4017,273.0135,273.4742,272.4599,272.4918,271.384,269.9839,271.1747,271.6407,271.8583,270.9355,269.5354,269.5491,269.8161,270.402,269.2652,268.2562,267.0428,267.1848,266.8747,266.2949,266.6252,266.209,266.837,268.2371,268.4791,268.5582,268.1328,266.7327,266.4612,267.6198,266.4843,267.8023,268.748,269.4947,269.3213,269.7409,270.0207,271.4208,272.0916,271.4965,270.7322,269.3321,269.5113,270.2928,270.8664,271.4026,270.795,269.5813,268.1129,266.6812,264.8709,262.5138,259.4845,255.6254,250.7541,244.8717,238.0172,230.2534,222.5802,216.201,211.5002,209.7019,212.0487,216.5178,222.9083,230.7073,238.9901,247.2576,255.3484,263.5466
286.2863,285.1198,284.1518,284.9988,283.5988,283.5988,284.174,284.174,282.8288,283.1031,283.0571,284.2823,283.9395,282.5395,282.1604,281.1597,279.7596,279.4058,279.964,279.6819,279.2755,279.4181,279.6772,278.948,277.9691,278.2502,277.8382,276.8061,277.9277,276.5276,275.2677,274.9217,274.9548,276.6666,276.6666,275.3501,274.95,274.3712,273.3961,274.7962,274.0719,275.3373,275.4061,275.6384,274.3529,272.9528,272.424,272.6635,272.442,273.0338,274.4338,273.0848,272.3687,272.0622,272.3932,272.5792,273.6898,273.3023,274.4136,273.5761,272.176,271.9647,271.0169,269.6387,269.7746,270.2406,270.4582,269.9048,269.7005,270.9492,271.2162,270.2072,269.2012,268.3379,267.4977,266.0976,265.5687,264.8948,265.6871,266.4431,266.7703,266.8792,267.285,267.1581,267.8677,266.4676,267.8613,267.287,265.8869,266.7681,267.8422,269.2423,270.5667,271.0999,270.0725,271.3293,271.5443,271.231,269.8423,270.4261,269.2612,269.8016,269.4624,269.9977,269.4178,268.7697,267.3202,265.6132,263.4872,260.783,257.2498,252.6164,246.739,239.8839,232.5198,225.4121,219.2296,214.528,212.0631,211.8864,215.0686,220.3913,227.2995,234.9756,242.7102,250.1355,257.165,263.5798
282.7288,284.2154,283.5435,284.379,284.5399,284.5399,284.3497,284.3184,282.9183,282.8873,283.1229,283.1373,282.7418,283.1351,282.3781,281.1202,279.7202,279.4058,280.2613,280.1449,280.1449,279.7031,278.764,277.6973,276.9681,276.8501,278.2099,277.7273,277.6301,276.23,275.1353,274.0368,275.4369,275.2665,275.2665,274.862,273.5499,273.1202,273.735,274.2969,273.7325,273.9372,274.6234,275.132,274.0335,272.6334,273.7897,272.3896,273.6674,273.9738,273.0529,274.2122,272.8121,272.6858,273.7933,273.6969,272.2968,272.9393,274.0204,273.2028,271.8026,271.85,270.45,269.0498,269.7753,271.1754,271.5731,270.173,271.1006,270.4233,271.5003,270.0824,268.6501,267.207,266.3442,265.7509,264.643,265.6505,265.8561,266.4693,265.859,267.2591,268.6592,267.9475,266.5474,266.3351,266.4943,266.1568,265.7867,265.8623,267.2624,268.5868,269.5585,269.6998,269.4619,269.9292,270.1442,269.8309,270.8194,269.4193,270.6613,270.7517,270.1297,268.8433,268.0162,268.1824,266.7621,265.2921,263.4616,260.6629,256.485,250.8866,243.9556,235.7054,227.0402,219.2462,213.3987,209.5681,208.1327,210.0389,215.6665,222.8004,231.0876,239.3953,246.8759,253.4039,259.3477,264.7606
285.9319,284.7087,284.4645,284.9814,285.3834,285.3834,284.2391,283.7669,282.7208,284.1209,284.523,283.72,283.5072,282.1071,281.5597,280.3982,279.4827,279.3419,279.5957,280.1449,278.882,278.3011,277.7222,276.7841,275.7173,276.3144,277.5908,278.5629,277.1611,276.1304,274.7303,274.7291,275.3173,276.0414,276.0414,274.6413,273.9697,274.5256,273.9522,273.4517,272.3324,272.708,274.1081,273.7517,273.1521,272.6554,273.9602,272.5602,272.2673,272.5737,272.9228,272.8181,273.814,273.899,272.6918,272.6693,272.3621,272.5326,272.6203,272.3834,272.5639,271.1749,270.9114,269.5113,269.2966,270.0787,271.3558,271.495,271.4638,271.4414,270.3564,269.5213,268.1049,266.67,265.156,264.3392,264.847,265.1021,266.5021,266.7307,266.7509,267.7999,268.065,268.1217,267.1812,265.7811,265.8625,265.2563,265.6729,266.1744,266.6069,267.6811,268.1584,269.2881,269.7791,270.756,271.3182,270.0704,269.7283,269.8456,270.692,272.0922,270.748,269.3479,267.9863,267.6853,267.554,266.6483,264.9177,262.1481,257.9647,251.4344,242.3896,231.8728,220.8514,211.5385,205.4908,202.1376,202.205,205.754,213.7217,224.1703,235.1127,245.0097,252.4177,257.9077,262.3171,266.6361
284.8487,286.1089,285.8647,285.8579,283.403,283.403,282.942,282.3668,282.2962,282.8886,283.9818,284.6445,283.2444,282.1263,282.0375,280.6374,278.8864,277.9156,278.2047,279.5961,278.3023,276.8991,276.3183,276.1973,276.7942,277.6918,277.6064,277.9874,276.5847,275.175,274.6005,275.1401,275.716,276.591,276.591,275.4168,275.3699,275.9351,274.7668,273.3954,272.6927,272.5379,273.1177,273.8197,274.3387,273.6204,274.0786,273.3523,272.9217,271.4733,271.5226,272.1388,273.192,272.9622,272.3622,272.6694,273.6783,273.9327,272.4041,271.3174,271.1638,271.0909,271.2963,270.4951,270.5714,270.7776,269.9557,270.263,270.0638,270.8616,269.4615,268.8813,268.8993,267.1979,264.469,262.859,263.5372,265.6628,266.8317,268.1309,268.151,267.5571,267.262,266.7216,267.6798,266.5841,265.184,264.2916,264.2727,264.9778,266.3462,266.5156,267.9157,269.3376,270.9561,271.759,271.1792,271.4706,270.5405,271.2457,271.6082,272.1945,270.9719,269.9662,268.8892,268.2952,269.2794,269.0494,267.5936,265.1806,261.5471,255.4836,243.7936,228.173,212.3863,201.0688,195.0297,192.095,193.137,197.9164,208.6307,224.6546,241.0048,253.6371,260.3951,264.441,266.7828,268.9945
