272.4668,272.4668,272.4668,275.5148,275.3907,275.4027,275.3983,275.3983,277.0684,275.7054,277.3164,275.6671,275.6671,275.6258,275.5037,275.8059,277.3497,277.3497,275.5161,275.9698,275.9099,275.7814,274.2362,275.6322,275.4977,275.4977,274.7074,275.3276,275.7519,277.3742,275.9148,275.9148,277.0948,276.5918,274.6578,274.1674,274.1674,274.8267,275.0643,276.5416,274.591,274.591,273.4431,273.2301,273.5438,273.4973,273.4973,273.2485,273.4011,273.4011,274.7688,273.4416,273.0557,274.6436,274.6436,272.9673,272.655,272.9189,272.9189,273.3011,273.3011,273.2511,272.527,272.5814,274.3367,274.3367,272.599,272.7317,274.1892,272.1542,272.7662,272.7662,272.7662,272.9719,272.9719,272.9719,272.9719,272.9719,272.9719,272.9719,272.9719,272.9719,272.9719,272.9719,272.9719,272.9719,272.9719,272.9719,272.9719,272.9719,272.9719,272.9719,272.9719,272.9719,272.9719,272.9719,272.9719,272.9719,272.9719,272.9719,272.9719,272.9719,272.9719,272.9719,272.9719,272.9719,272.9719,269.3646,269.3646,269.9293,271.2743,268.831,266.5969,268.5316,267.6524,267.2693,267.5365,267.5365,266.8042,268.5033,266.751,268.5199,266.5937,268.2998,268.2998,267.3903,267.3903,267.3903,267.3903,267.3903,267.3903,261.8659,259.083,259.083,251.3532,247.6764,247.5033,229.0918,207.5458,188.895,182.8822,180.1216,179.7474,179.468,177.6622,181.908,194.2867,217.2983,236.0708,257.1634,264.661,269.1136,269.1136,269.1136,269.1136,269.1136,269.1136,268.6584,268.6584,271.6663,271.7178,270.2302,272.7582,272.7582,272.7582,271.9344,271.8216,271.8512,271.8512,272.0714,272.0714,272.6031,272.5139,272.5139,272.7623,272.7623,272.9679,274.2557,274.2557,274.278,272.106,274.125,272.7641,274.6126,272.9631,272.9631,274.3739,272.5771,271.9364,272.6027,272.2682,272.673,272.673,272.9492,272.9492,273.632,275.0618,275.0618,273.7328,273.7328,273.7328,274.705,274.705,274.0654,274.0654,273.5547,273.0468,273.0468,273.7457,273.7457,273.5512,274.4967,274.4967,273.1119,273.1119,272.8603,272.7336,272.7336,273.0951,273.0951,272.818,272.406,274.6473,274.6473,273.8411,273.4952,273.4952,274.3446,274.3446,273.4742,273.9369,273.9369,274.4755,274.4755,273.3451,273.3451,273.663,272.8492,272.8492,273.0645,273.0645,273.0645,273.0645,273.0645,273.0665,273.0665,274.3073,274.3073,274.3073,274.3073,272.7396,272.7396,272.4061,272.4061,272.4061,271.6656
272.4668,272.4668,272.4668,275.5148,275.3907,275.4027,275.3983,275.3983,277.0684,275.7054,277.3164,275.6671,275.6671,275.6258,275.5037,275.8059,277.3497,277.3497,275.5161,275.9698,275.9099,275.7814,274.2362,275.6322,275.4977,275.4977,274.7074,275.3276,275.7519,277.3742,275.9148,275.9148,277.0948,276.5918,274.6578,274.1674,274.1674,274.8267,275.0643,276.5416,274.591,274.591,273.4431,273.2301,273.5438,273.4973,273.4973,273.2485,273.4011,273.4011,274.7688,273.4416,273.0557,274.6436,274.6436,272.9673,272.655,272.9189,272.9189,273.3011,273.3011,273.2511,272.527,272.5814,274.3367,274.3367,272.599,272.7317,274.1892,272.1542,272.7662,272.7662,272.7662,272.9719,272.9719,272.9719,272.9719,272.9719,272.9719,272.9719,272.9719,272.9719,272.9719,272.9719,272.9719,272.9719,272.9719,272.9719,272.9719,272.9719,272.9719,272.9719,272.9719,272.9719,272.9719,272.9719,272.9719,272.9719,272.9719,272.9719,272.9719,272.9719,272.9719,272.9719,272.9719,272.9719,272.9719,269.3646,269.3646,269.9293,271.2743,268.831,266.5969,268.5316,267.6524,267.2693,267.5365,267.5365,266.8042,268.5033,266.751,268.5199,266.5937,268.2998,268.2998,267.3903,267.3903,267.3903,267.3903,267.3903,267.3903,261.8659,259.083,259.083,257.9757,252.3473,236.7966,223.2241,201.1785,187.2145,180.1555,179.826,178.1309,179.4482,177.8585,181.8542,197.3747,222.0319,246.6272,259.1658,264.9581,269.1136,269.1136,269.1136,269.1136,269.1136,269.1136,267.3653,267.3653,268.7917,270.1433,269.86,271.4942,270.8056,270.8056,270.8552,270.9026,272.7564,272.7564,272.0656,272.0714,272.6031,272.7369,272.7369,272.7623,272.7623,272.9679,274.2557,274.2557,274.278,272.106,274.125,272.7641,274.6126,272.9631,272.9631,274.3739,272.5771,271.9364,272.6027,272.2682,272.673,272.673,273.4398,273.4398,273.632,271.8201,271.8201,273.5802,273.5802,273.7911,274.7715,274.7715,273.387,273.387,273.5737,274.669,274.669,273.894,273.894,273.7237,272.7907,272.7907,273.0254,273.0254,272.8497,272.7915,272.7915,272.9295,272.9295,272.7484,272.8389,273.1052,273.1052,273.44,273.2708,273.2708,272.7227,272.7227,273.5337,273.0489,273.0489,272.7718,272.7718,273.3451,273.3451,273.2175,272.7431,272.7431,272.9998,272.9998,272.9998,272.9998,272.9998,273.0665,273.0665,273.0665,274.3073,274.3073,274.3073,272.9789,272.9789,273.0023,273.0023,273.0023,273.4877
277.166,276.463,275.4222,275.2695,274.6483,277.1481,277.2629,277.2629,275.1933,275.5173,275.5516,277.3787,277.3787,275.6633,275.2771,275.5447,277.9863,277.9863,275.4321,276.9943,277.3951,274.8928,275.4061,275.7948,275.2427,275.2427,275.6486,275.2857,275.1119,275.2887,277.4923,277.5045,275.0161,274.2969,276.2855,274.3032,274.3032,273.385,273.1563,274.9104,274.9488,275.904,274.8917,274.7921,273.2248,273.3365,275.0233,274.7447,273.3243,273.3243,275.6595,272.8182,272.8425,274.7231,273.1621,274.5816,273.0464,274.5809,274.5809,275.4612,273.1153,272.7004,273.1916,273.1916,272.7751,272.7751,272.2358,274.2747,272.4175,272.8482,272.653,272.653,272.9719,272.9719,272.9719,272.9719,272.9719,272.9719,272.9719,272.9719,272.9719,268.4347,268.4347,268.4347,268.4347,268.4347,268.4347,268.4347,268.4347,268.4347,268.4347,268.4347,268.4347,268.4347,268.4347,268.4347,268.4347,268.4347,268.4347,268.4347,268.4347,268.4347,268.4347,268.4347,268.4347,268.4347,268.4347,268.4347,268.4347,268.4347,268.4347,268.4347,268.8433,269.736,268.4347,268.4347,267.5021,267.5021,268.4849,266.601,266.9008,268.6113,266.7664,266.4177,266.4177,264.6281,264.6281,264.6281,264.6281,264.6281,264.6281,264.6281,261.817,262.4509,261.4936,252.9472,238.3147,218.4041,198.3094,185.0462,180.4386,178.3793,180.8466,178.0699,178.1425,184.5506,199.0648,226.0732,248.6527,260.5043,265.1741,269.1136,269.1136,269.1136,269.1136,269.1136,269.1136,268.5699,268.5699,268.7917,270.1433,269.86,271.4942,270.8056,270.8056,270.8552,270.9026,270.075,270.075,270.6913,270.6913,271.8796,274.4712,274.4712,272.8015,272.8015,273.088,272.8516,272.8516,273.3675,273.3675,273.4184,273.4184,273.4184,274.334,274.334,272.8778,272.8778,272.6962,272.7304,272.7304,272.6737,272.6737,273.0996,273.0996,272.8538,272.8654,272.8654,273.2069,273.2069,273.4394,272.9627,272.9627,273.4079,273.4079,273.7966,273.3316,273.3316,274.0398,274.0398,274.3521,272.689,272.689,272.9422,272.9422,273.0321,272.6673,272.6673,273.4978,273.4978,272.7122,272.8693,272.0239,272.0239,273.44,273.2708,273.2708,272.6836,272.6836,273.3944,273.0489,273.0489,272.7857,272.7857,273.3451,273.3451,273.2175,272.5848,272.5848,272.9998,272.9998,272.9998,272.9998,272.9998,273.0665,272.7151,272.7151,272.7151,272.7151,272.9789,272.9789,272.9789,273.0023,273.0023,273.0023,273.4877
273.9908,273.9908,273.9908,273.9908,275.8904,275.8904,277.5438,277.5438,276.3677,276.3677,276.3677,277.9848,277.9848,275.9292,275.8248,275.8248,275.7939,275.7939,276.1552,275.9283,275.9283,275.9283,275.6458,275.6458,275.6458,275.6458,275.446,275.446,275.446,275.9467,275.9467,275.9467,275.4583,274.687,275.983,275.1302,275.1302,274.3792,274.3792,274.3792,274.3792,274.7655,273.2544,272.9515,273.2535,273.6197,273.6329,273.2599,272.7311,272.7311,273.5924,273.5924,273.5924,273.5536,273.5536,273.5536,273.3581,272.6578,272.6578,274.765,272.8525,274.2532,273.1916,273.1916,272.7042,272.7042,273.0088,273.0088,272.809,272.809,272.809,272.809,272.9719,272.9719,272.9719,272.9719,272.9719,272.9719,272.9719,272.9719,272.9719,268.4347,268.4347,268.4347,268.4347,268.4347,268.4347,268.4347,268.4347,268.4347,268.4347,268.4347,268.4347,268.4347,268.4347,268.4347,268.4347,268.4347,268.4347,268.4347,268.4347,268.4347,268.4347,268.4347,268.4347,268.4347,268.4347,268.4347,268.4347,268.4347,268.4347,268.4347,271.3341,269.3037,268.4347,268.4347,268.8211,268.8211,266.7929,268.4904,266.8289,268.7772,268.6402,268.3027,268.3027,264.6281,264.6281,264.6281,264.6281,264.6281,264.6281,264.6281,264.7032,263.6558,263.0884,257.5268,243.5344,220.4063,195.7746,183.2868,178.6917,179.8121,180.6266,177.987,178.9521,185.7482,202.0618,224.6136,247.8709,260.4647,265.4632,269.1136,269.1136,269.1136,269.1136,269.1136,269.1136,266.9446,266.9446,267.937,268.4422,268.666,269.0728,269.343,269.343,269.977,269.6439,269.7014,269.7014,270.6913,269.8432,269.8432,272.0601,272.0601,274.1686,274.1686,273.088,272.6779,272.6779,273.2986,273.2986,273.1969,273.1969,273.1969,272.9967,272.9967,273.3287,273.3287,273.312,273.312,273.312,272.6744,272.6744,272.8524,272.8182,272.8215,272.8593,272.8593,274.4525,272.4498,274.4147,274.6788,274.6788,273.0058,274.5803,273.01,273.1877,273.1877,274.847,274.9091,275.0911,274.5817,274.5817,272.6195,272.4139,272.881,272.787,272.787,272.8141,274.4766,272.8359,272.5973,272.8633,272.8633,273.44,273.2708,273.2708,274.7108,274.7108,273.3944,273.0489,273.0489,272.7484,272.7484,272.5018,272.8434,274.4934,273.1503,273.1503,272.8446,272.2967,274.3392,274.2896,274.2896,272.8947,272.8537,272.8537,272.8537,272.6975,271.4441,272.6242,272.6242,271.3248,272.9137,274.4207,274.2535
273.9908,273.9908,273.9908,273.9908,276.0234,276.0234,275.4945,275.4945,276.3677,276.3677,276.3677,275.395,275.395,275.9292,275.8248,275.8248,275.3069,275.3069,276.1552,275.9283,275.9283,275.9283,275.6294,275.6458,275.6458,275.6458,275.446,275.446,275.4275,275.9467,275.9467,275.9467,274.3192,274.3192,273.4161,273.3911,273.3911,274.3792,274.3792,274.3792,274.3792,272.8993,273.3518,274.0188,273.7036,273.7036,273.9458,273.9458,274.6416,274.6416,273.5924,273.5924,273.5924,273.5536,273.5536,273.5536,273.1923,272.9795,272.9795,274.6448,272.7544,272.1805,273.204,273.204,272.936,272.936,273.0088,273.0088,273.0434,273.0163,273.0163,273.0163,272.9719,272.9719,272.9719,272.9719,272.9719,272.9719,272.9719,272.9719,272.9719,268.4347,268.4347,268.4347,268.4347,268.4347,268.4347,268.4347,268.4347,268.4347,268.4347,268.4347,268.4347,268.4347,268.4347,268.4347,268.4347,268.4347,268.4347,268.4347,268.4347,268.4347,268.4347,268.4347,268.4347,268.4347,268.4347,268.4347,268.4347,268.4347,268.4347,268.4347,271.4849,270.2824,268.4347,268.4347,268.8109,268.8109,266.9664,266.8295,268.6002,268.6613,266.7634,268.2714,268.2714,264.6281,264.6281,264.6281,264.6281,264.6281,264.6281,264.6281,265.7792,265.8376,264.1328,257.1129,242.8059,218.2831,195.0386,182.2525,178.2109,180.3174,177.9457,177.6896,180.891,188.978,206.7183,229.6697,249.7712,261.3574,266.1828,265.6469,264.7849,266.0583,268.1853,268.3134,268.3134,268.5526,268.5526,267.937,268.4422,268.666,269.0728,269.343,269.343,269.977,269.5943,271.3713,271.3713,270.6913,269.8432,269.8432,270.3435,270.3435,274.1686,274.1686,273.5781,274.4615,274.4615,273.2986,273.2986,273.1969,273.1969,273.1969,274.5611,274.5611,273.3287,273.3287,273.312,273.312,273.312,272.6744,272.6744,272.8524,272.8182,272.8215,272.8593,272.8593,274.4525,272.4498,274.4147,274.6788,274.6788,273.0058,274.5803,273.01,273.1877,273.1877,274.847,274.9091,275.0911,274.5817,274.5817,272.6195,272.4139,272.881,272.787,272.787,272.8141,274.4766,272.8359,272.5973,272.8633,272.8633,273.44,273.2708,273.2708,274.7108,274.7108,273.3944,273.0489,273.0489,272.7484,272.7484,272.5018,272.8434,274.4934,273.1503,273.1503,272.8446,272.2967,274.3392,274.2896,274.2896,272.8947,272.8537,272.8537,272.8537,272.6975,271.4441,272.6242,272.6242,271.3248,272.9137,274.4207,274.2535
276.0667,276.0667,275.6384,275.6384,276.015,276.015,277.1446,277.1446,276.3677,276.3677,276.3677,274.4508,274.4508,275.3187,275.4615,275.4615,277.095,277.095,275.9961,276.4639,276.4639,276.4639,276.0797,276.0797,276.0797,276.0797,276.0539,276.0539,276.0539,275.4391,275.4391,275.4391,274.3192,274.3192,273.1525,274.8316,274.8316,274.3792,274.3792,274.3792,274.3792,272.8541,273.3127,274.0188,273.7036,273.7036,273.9458,273.9458,273.026,273.026,273.691,273.691,273.691,273.3342,273.3342,273.3342,273.1923,272.9909,272.9909,272.8147,272.7899,272.6284,273.204,273.204,272.9316,272.9316,273.0434,273.0434,273.0434,272.8536,272.7318,272.7318,272.9719,272.9719,272.9719,272.9719,272.9719,272.9719,272.9719,272.9719,272.9719,268.4347,268.4347,268.4347,268.4347,268.4347,268.4347,268.4347,268.4347,268.4347,268.4347,268.4347,268.4347,268.4347,268.4347,268.4347,268.4347,268.4347,268.4347,268.4347,268.4347,268.4347,268.4347,268.4347,268.4347,268.4347,268.4347,268.4347,268.4347,268.4347,268.4347,268.4347,271.1163,268.8626,268.4347,270.013,267.6302,267.6302,268.5131,266.7996,266.7685,268.4361,266.4909,268.3632,268.3632,264.6281,264.6281,264.6281,264.6281,264.6281,264.6281,264.6281,264.2813,265.8959,264.6141,254.8453,234.5717,216.4481,193.2192,181.7384,178.0032,177.5452,177.4518,176.5817,181.4537,192.0163,211.9988,233.1908,250.5845,260.9689,265.4392,263.3376,266.0924,268.7607,266.3291,266.0922,266.0922,266.966,266.966,268.9398,268.9816,270.4248,269.6131,269.4795,269.4795,268.7931,269.6106,269.6114,269.6114,271.4427,269.7503,272.0085,273.866,273.866,271.7126,273.9959,272.6929,272.6947,272.6947,272.7279,272.5663,274.1251,272.4744,274.6077,272.8222,272.8222,273.2432,273.2432,273.2432,272.8526,272.8861,274.5565,274.5565,273.776,273.776,272.9232,272.8455,272.8455,273.0791,273.0791,273.5235,274.5233,274.5233,273.5676,273.5676,273.3836,274.5845,274.5845,273.3172,273.3172,273.0758,272.8077,272.8077,273.4845,273.4845,273.4406,273.022,273.022,273.9567,273.9567,273.6699,273.6699,272.7918,272.7918,273.0793,273.474,273.474,272.3727,272.3727,273.4529,273.7136,274.3472,275.9461,275.9461,273.9081,273.9081,273.5917,273.1144,273.1144,273.5709,273.4527,273.4527,273.5709,273.5709,273.4305,273.4305,273.3296,273.3296,273.3296,272.0708,274.153,272.9639,272.9639,272.9639,272.9639,271.9672
274.4003,274.4003,275.6384,275.6384,276.015,276.015,275.3481,275.3481,275.9293,275.9293,274.8105,275.1701,275.1701,275.346,275.4615,275.4615,275.6324,275.6324,275.9961,276.4639,276.4639,276.4639,276.0797,276.0797,276.0797,276.0797,276.0539,276.0539,276.0539,275.4391,275.4391,275.4391,274.3192,274.3192,275.5505,273.3276,273.3276,274.3792,274.3792,274.3792,274.3792,274.7033,273.446,274.0188,273.7036,273.7036,273.9458,273.9458,272.8443,272.8443,273.691,273.691,273.691,273.3342,273.3342,273.3342,273.1923,274.4283,274.4283,272.8672,272.8381,272.8209,273.204,273.204,272.7938,272.7938,273.6297,273.6297,273.0434,272.8536,272.7318,272.7318,272.9719,272.9719,272.9719,272.9719,272.9719,272.9719,272.9719,272.9719,272.9719,268.4347,268.4347,268.4347,268.4347,268.4347,268.4347,268.4347,268.4347,268.4347,268.4347,268.4347,268.4347,268.4347,268.4347,268.4347,268.4347,268.4347,268.4347,268.4347,268.4347,268.4347,268.4347,268.4347,268.4347,268.4347,268.4347,268.4347,268.4347,268.4347,268.4347,268.4347,271.1163,268.8626,267.8799,270.013,267.6302,267.6302,268.5131,266.7996,266.7685,268.4361,266.4909,268.3632,268.3632,264.6281,264.6281,264.6281,264.6281,264.6281,264.6281,264.6281,266.0183,266.3026,263.477,252.9934,236.2526,211.8644,191.7169,182.0602,177.6746,177.3074,179.0658,177.7296,182.015,192.5704,216.4258,239.9555,254.0271,261.2973,260.2251,263.7338,265.5446,266.7044,266.7044,266.0922,266.0922,266.966,266.966,268.9398,268.9816,270.4248,269.6131,269.4795,269.4795,268.7931,269.6106,269.6114,269.6114,271.4427,269.7503,272.0085,273.866,273.866,271.7126,273.9959,272.6929,272.6947,272.6947,272.7279,272.5663,274.1251,272.4744,274.6077,272.8222,272.8222,273.2432,273.2432,273.2432,272.8526,272.8861,274.5565,274.5565,273.2808,273.2808,272.936,272.5398,272.5398,273.0319,273.0319,273.2689,274.5218,274.5218,273.6104,273.6104,273.1335,272.7773,272.7773,273.3434,273.3434,273.7418,272.3294,272.3294,273.5249,273.5249,273.8834,274.5632,274.5632,273.8496,273.8496,273.6699,273.2048,272.8986,272.8986,273.0793,273.474,273.474,272.5049,272.5049,273.4529,273.7136,273.7136,274.5336,274.5336,273.9081,273.9081,273.5917,274.529,274.529,273.5709,273.4527,273.4527,273.5709,273.5709,274.4474,272.1189,272.5092,272.621,273.1009,273.1009,273.1009,272.9639,272.9639,272.9639,272.9639,271.9672
276.6534,276.6534,275.3169,275.2477,276.015,276.015,275.4223,275.4223,275.9293,275.9293,275.9293,274.2718,274.2718,275.3115,275.1664,275.1423,275.4689,275.4689,275.3824,275.8822,275.6462,276.3199,278.6529,275.9895,274.8188,274.8188,276.651,275.6537,277.1661,275.467,273.7656,274.965,273.5007,273.5091,273.6226,273.4488,273.4488,274.7341,274.843,273.3203,272.9121,272.8931,273.3509,273.3509,275.839,274.7047,273.0628,274.5777,272.894,272.894,275.4463,273.2704,272.787,272.8688,272.7924,272.9475,272.8272,272.9228,272.9228,272.662,274.5279,272.8805,272.6657,273.0331,274.7527,274.7527,273.6297,273.6297,273.3103,273.3103,273.3103,274.7221,272.9719,272.9719,272.9719,272.9719,272.9719,272.9719,272.9719,272.9719,272.9719,268.4347,268.4347,268.4347,268.4347,268.4347,268.4347,268.4347,268.4347,268.4347,268.4347,268.4347,268.4347,268.4347,268.4347,268.4347,268.4347,268.4347,268.4347,268.4347,268.4347,268.4347,268.4347,268.4347,268.4347,268.4347,268.4347,268.4347,268.4347,268.4347,268.4347,268.4347,268.9567,269.5382,269.6562,271.0134,269.0283,269.0283,266.6646,266.7807,266.6375,266.5167,266.4694,266.4808,266.4808,267.3903,267.3903,267.3903,267.3903,267.3903,267.3903,264.3224,266.7223,266.6638,262.2884,249.9919,228.4005,209.1712,190.1843,180.8316,177.8292,177.7677,179.6142,178.4605,181.9843,194.7477,220.1158,243.1584,253.0319,255.4992,256.3975,256.5432,263.7997,263.7997,266.7044,268.9311,268.9311,267.5331,268.6954,268.6954,268.6954,268.3272,268.3272,269.5455,269.5455,269.5455,269.5455,270.0645,270.0645,271.5248,270.3109,271.7256,274.9644,274.9644,272.5427,271.7533,272.6593,272.7571,272.7571,273.1654,273.1654,273.8484,273.8484,273.8484,274.6497,274.6497,273.2432,273.2432,273.2432,273.3244,273.3244,272.8961,272.8961,273.2094,273.2094,273.0942,272.658,272.658,273.1754,273.2067,273.4511,272.7933,272.7933,273.6714,273.6714,273.5462,272.5213,272.5213,273.6626,273.6626,274.2691,274.4681,274.4681,274.291,274.291,273.7584,274.468,274.468,273.1645,273.1645,274.45,274.45,274.5609,274.5609,273.5719,273.1847,273.1847,272.4748,272.4748,273.3345,273.3067,273.3067,272.5929,272.5929,272.9676,272.9676,273.2021,272.5511,272.5511,273.3433,273.2813,273.2813,273.3433,273.3433,272.8231,272.6325,272.4411,273.394,273.394,273.394,273.394,273.0662,273.0662,273.0662,273.0662,271.9672
275.3169,275.3169,275.3169,275.2477,275.2477,275.2477,274.9899,274.9899,275.9293,275.8805,275.9293,275.4424,275.4424,275.378,275.1664,275.1664,275.4689,275.4689,275.3824,275.8822,275.6462,276.3199,278.6529,275.9895,274.8188,274.8188,276.651,275.6537,277.1661,275.467,273.7656,274.965,273.5007,273.5091,273.6226,273.4488,273.4488,274.7341,274.843,273.3203,272.9121,272.8931,273.3509,273.3509,275.839,274.7047,273.0628,274.5777,272.894,272.894,275.4463,273.2704,272.787,272.8688,272.7924,272.9475,272.8272,272.9228,272.9228,272.662,274.5279,272.8805,272.6657,273.0331,274.7527,274.7527,273.6297,273.6297,273.3103,273.3103,273.3103,272.8402,272.9719,272.9719,272.9719,272.9719,272.9719,272.9719,272.9719,272.9719,272.9719,268.4347,268.4347,268.4347,268.4347,268.4347,268.4347,268.4347,268.4347,268.4347,268.4347,268.4347,268.4347,268.4347,268.4347,268.4347,268.4347,268.4347,268.4347,268.4347,268.4347,268.4347,268.4347,268.4347,268.4347,268.4347,268.4347,268.4347,268.4347,268.4347,268.4347,268.4347,269.4033,269.5124,271.2812,269.8271,269.5328,269.5328,266.8355,268.297,266.1732,268.2218,266.5711,266.4808,266.4808,267.3903,267.3903,267.3903,267.3903,267.3903,267.3903,264.3224,266.7223,263.0017,259.783,247.9631,227.9818,204.9481,188.1927,181.2166,179.4734,177.9935,180.952,181.2285,183.4949,196.4735,217.2034,239.4545,248.4418,245.4315,248.5972,259.8977,263.7997,263.7997,266.7044,267.3167,267.3167,267.5331,268.6954,268.6954,268.6954,268.3272,268.3272,269.5455,269.5455,269.5455,269.5455,271.2103,271.2103,270.2167,271.8137,272.9638,272.0191,272.0191,272.6313,274.0324,272.6593,274.2507,274.2507,272.8582,272.8582,273.7907,273.7907,273.7907,274.5283,274.5283,273.2432,273.2432,273.2432,273.3244,273.3244,272.7438,272.7438,273.2373,273.2373,273.5876,273.1521,273.1521,273.7433,273.7433,273.598,274.5974,274.5974,273.646,273.646,274.0535,274.5383,274.5383,273.7863,273.7863,274.2353,274.7946,274.7946,274.2762,274.2762,273.8163,272.5535,272.5535,273.0519,273.0519,274.45,274.45,275.364,275.364,273.5719,273.1847,273.1847,272.6089,272.6089,273.3345,273.3067,273.3067,272.9626,272.9626,272.9676,272.9676,273.2021,272.9244,272.9244,273.3433,273.3433,273.2813,273.3433,273.3433,274.4778,272.8289,274.3818,273.394,273.394,273.394,273.394,273.0662,273.0662,273.0662,273.0662,271.4117
275.3169,275.3169,275.3169,275.2477,275.2477,275.2477,275.3979,275.3979,274.6269,275.4833,275.5143,275.1776,275.1776,276.7523,275.5667,276.7319,274.6873,274.6873,275.5773,275.6949,275.6949,275.6949,276.7359,276.7359,274.8312,274.8312,274.7316,274.7316,274.7316,274.5184,274.5184,274.5184,274.134,274.134,273.2782,273.3112,273.3112,273.6944,273.6944,273.6944,273.4918,273.4918,273.4918,273.4918,274.1685,274.1685,274.1685,273.2854,273.0097,273.0097,273.1424,273.2578,273.2578,273.2578,273.1736,273.1736,273.1736,272.903,272.903,272.6186,274.5044,274.3792,273.6024,273.4615,272.8782,272.8782,274.4341,274.6056,272.838,272.5855,272.4972,272.743,272.9719,272.9719,272.9719,272.9719,272.9719,272.9719,272.9719,272.9719,272.9719,268.4347,268.4347,268.4347,268.4347,268.4347,268.4347,268.4347,268.4347,268.4347,268.4347,268.4347,268.4347,268.4347,268.4347,268.4347,268.4347,268.4347,268.4347,268.4347,268.4347,268.4347,268.4347,268.4347,268.4347,268.4347,268.4347,268.4347,268.4347,268.4347,268.4347,269.8853,271.5269,271.4306,269.8815,271.4601,270.8948,270.8948,266.6473,266.564,266.6563,266.8176,266.9393,266.7299,266.7299,265.8564,265.8564,265.8564,265.8564,265.8564,265.8564,265.8564,265.5224,253.9988,255.5505,245.5761,223.2106,201.1932,186.0888,179.8211,178.1065,179.7165,179.7805,179.0622,185.133,199.5781,219.6613,232.1054,242.3115,253.9424,258.225,261.7462,264.8081,266.0362,268.09,266.5619,266.5619,268.0586,265.708,266.5423,268.7337,269.0353,268.6286,267.4941,271.1743,269.7332,271.525,269.8141,269.8141,273.5112,271.0434,273.1385,272.141,272.141,272.141,272.4221,272.3359,272.6239,272.6239,272.8582,272.8582,273.7907,273.7907,273.7907,274.4872,274.4872,272.9471,272.9471,272.9471,272.6285,272.0586,272.0586,272.0586,273.5838,273.5838,273.8341,273.2283,273.2283,273.8501,273.8501,273.4886,272.8509,272.8509,273.5158,273.5158,273.4355,274.698,274.698,273.8933,273.8933,273.5341,274.6494,274.6494,274.0457,274.0457,273.929,272.9063,272.9063,273.7676,273.7676,274.45,274.45,272.9656,272.9656,273.5719,273.1847,273.1847,275.482,275.482,273.3345,273.3067,273.3067,273.0211,273.0211,272.9676,272.9676,273.2021,272.909,272.909,273.3433,273.3433,273.3433,273.3433,273.3433,272.6693,272.7175,272.8762,273.394,273.394,273.394,273.394,273.0662,273.0662,273.0662,273.0662,273.971
272.243,272.9863,276.4604,276.4604,275.1145,274.4615,275.3979,275.3979,274.6269,275.4833,275.5143,275.1776,275.1776,276.7523,275.5667,276.7319,274.6873,274.6873,275.5773,275.6949,275.6949,275.6949,276.7359,276.7359,274.8312,274.8312,274.7316,274.7167,274.7316,274.5184,274.5184,274.5184,274.134,274.134,273.6897,273.2367,273.2367,273.2688,272.9063,272.9088,272.6284,274.5839,274.7962,274.7962,274.7296,275.0933,274.7137,272.8277,272.8771,272.8771,273.1424,273.2578,273.2578,273.2578,273.1736,273.1736,273.1736,272.6234,272.6234,272.8178,272.7848,272.2833,273.6024,273.4615,272.8782,272.8782,274.4341,274.6056,272.838,272.5855,272.4972,272.743,272.9719,272.9719,272.9719,272.9719,272.9719,272.9719,272.9719,272.9719,272.9719,268.4347,268.4347,268.4347,268.4347,268.4347,268.4347,268.4347,268.4347,268.4347,268.4347,268.4347,268.4347,268.4347,268.4347,268.4347,268.4347,268.4347,268.4347,268.4347,268.4347,268.4347,268.4347,268.4347,268.4347,268.4347,268.4347,268.4347,268.4347,268.4347,269.5997,271.5108,272.8827,271.9457,272.8366,271.9458,271.8109,271.8109,266.8734,266.8032,266.5955,268.6187,269.421,267.0988,267.0988,265.8564,265.8564,265.8564,265.8564,265.8564,265.8564,265.8564,247.3716,245.0341,248.9219,241.2614,218.7408,199.4744,185.9793,179.8311,181.0939,179.7237,179.2977,179.0855,187.5504,204.0945,223.2608,243.4152,254.1566,259.9023,263.0927,264.2737,266.6457,265.2043,267.5902,266.5619,266.5619,268.0586,265.708,266.5423,268.7337,269.0353,268.6286,267.4941,271.1743,269.7332,271.525,269.8141,269.8141,273.5112,271.0434,273.1385,272.141,272.141,272.141,272.2045,272.3066,272.3652,272.3652,274.6536,272.7433,272.3713,272.8102,274.516,274.6922,274.6922,272.6273,272.6679,272.6914,272.785,272.0586,272.0586,272.0586,274.2621,274.7901,275.4504,273.1723,273.1723,274.45,274.45,272.5268,274.4999,274.4999,274.3567,274.4007,272.6354,272.6354,272.6354,274.4595,272.5175,272.7127,274.4205,274.4205,274.646,274.646,274.7065,274.5285,274.5285,274.4733,274.4733,272.2122,274.4266,274.5962,274.5962,273.1874,275.2708,273.1593,274.8485,274.8485,272.6767,272.7939,274.3783,272.8259,272.8259,272.9836,272.8605,273.1599,274.7752,274.7752,272.5196,272.9323,273.3386,273.3386,273.3386,273.4056,275.3861,273.4082,275.1671,274.4632,274.4632,272.8261,272.4157,271.0903,272.3286,272.8458,269.389
272.243,272.9863,276.4604,276.4604,275.1145,274.4615,275.3979,275.3979,275.127,275.6437,275.3459,276.6429,276.6429,274.817,275.173,275.173,275.3152,275.3152,275.5773,275.6949,275.6949,275.6949,274.8312,274.8312,274.8312,274.8312,274.7316,274.7316,274.7316,274.5184,274.5184,274.5184,274.0287,274.0287,273.8584,273.2367,273.2367,273.2688,272.9063,272.9088,272.6284,274.5839,274.7962,274.7962,274.7296,275.0933,274.7137,272.8277,272.8771,272.8771,273.1424,273.2578,273.2578,273.2578,273.1736,273.1736,273.1736,274.4069,274.4069,273.0024,274.502,272.8477,273.6024,273.4615,274.4667,274.4667,274.4609,273.0139,272.685,275.1415,272.6828,272.9644,272.9719,272.9719,272.9719,272.9719,272.9719,272.9719,272.9719,272.9719,272.9719,268.4347,268.4347,268.4347,268.4347,268.4347,268.4347,268.4347,268.4347,268.4347,268.4347,268.4347,268.4347,268.4347,268.4347,268.4347,268.4347,268.4347,268.4347,268.4347,268.4347,268.4347,268.4347,268.4347,268.4347,268.4347,268.4347,268.4347,268.4347,269.6124,269.6831,269.8992,270.0667,271.8369,268.4347,268.4347,271.0225,271.0225,269.6346,267.1719,266.7729,268.5786,269.3393,266.9997,266.9997,265.8564,265.8564,265.8564,265.8564,265.8564,265.8564,265.8564,263.5031,246.351,241.0176,234.3768,220.6217,197.8031,185.5871,181.8663,179.7493,177.8721,177.7365,179.5965,190.5004,212.4318,227.3864,246.6148,253.9065,258.9683,263.4561,266.0947,264.9672,264.8673,265.9922,265.5629,265.5629,265.744,267.9413,266.6001,268.5141,268.4227,268.4227,268.4227,268.6136,268.6136,270.0248,270.0248,270.0248,270.7693,270.7693,271.1999,271.1999,272.141,272.141,272.2045,272.3066,272.3652,272.3652,274.6536,272.7433,272.3713,272.8102,274.516,274.6922,274.6922,272.6273,272.6679,272.6914,272.785,272.0586,272.0586,272.0586,274.2621,274.7901,275.4504,273.1723,273.1723,274.45,274.45,272.5268,274.4999,274.4999,274.3567,274.4007,272.6354,272.6354,272.6354,274.4595,272.5175,272.7127,274.4205,274.4205,274.646,274.646,274.7065,274.5285,274.5285,274.4733,274.4733,272.2122,274.4266,274.5962,274.5962,273.1874,275.2708,273.1593,274.8485,274.8485,272.6767,272.7939,274.3783,272.8259,272.8259,272.9836,272.8605,273.1599,274.7752,274.7752,272.5196,272.9323,273.3386,273.3386,273.3386,273.4056,275.3861,273.4082,275.1671,274.4632,274.4632,272.8261,272.4157,271.0903,272.3286,272.8458,269.389
273.2659,273.2659,273.6292,273.6292,274.0676,274.0676,274.7043,274.7043,277.1566,277.0095,275.4837,274.7741,274.7741,274.9243,274.318,274.318,276.4007,276.4007,274.5082,274.5082,274.5082,274.5082,274.1105,274.1105,274.1105,274.1105,274.0557,274.0557,274.0557,274.0348,274.0348,274.0348,274.0287,274.0287,273.8584,273.4184,273.4184,273.3384,273.3384,273.3384,273.5705,273.5705,273.5705,273.5705,274.0761,274.0761,274.0761,273.0849,272.6413,272.6413,274.5709,273.0013,273.0346,272.7997,274.6197,272.9246,273.0092,272.754,272.754,272.9703,274.6865,273.1693,273.0889,274.3503,272.7728,272.7728,272.6179,274.2594,273.0968,272.8982,273.0914,272.8561,272.9719,272.9719,272.9719,272.9719,272.9719,272.9719,272.9719,272.9719,272.9719,272.9719,272.9719,272.9719,272.9719,272.9719,272.9719,272.9719,272.9719,268.4347,268.4347,268.4347,268.4347,268.4347,268.4347,268.4347,268.4347,268.4347,268.4347,268.4347,268.4347,268.4347,268.4347,268.4347,268.4347,268.4347,268.4347,268.4347,272.9719,270.1828,269.3506,271.4625,269.8008,270.0325,268.4347,268.4347,271.6588,271.6588,269.6397,269.1419,267.169,268.5949,268.7167,268.6693,268.6693,265.8564,265.8564,265.8564,265.8564,265.8564,265.8564,265.8564,263.5031,255.909,249.1176,237.3966,215.1474,195.4164,184.1527,180.3996,178.0871,177.5066,179.6651,183.8047,196.0708,218.3245,240.892,242.5791,249.2105,256.4845,262.9274,264.7233,265.9465,267.0842,264.0378,265.5528,265.5528,267.5191,266.4843,266.2052,269.1248,268.2027,268.2027,268.2027,268.4978,268.4978,269.3039,269.3039,269.3039,269.8996,269.8759,270.2592,270.2592,271.758,271.758,272.7067,272.7067,274.0363,274.0363,272.4456,273.4702,273.4702,273.1754,273.1754,272.7251,272.7251,273.3189,273.3189,272.8742,272.8742,272.8742,272.8214,272.8214,273.2324,273.5874,274.6178,274.0136,273.5827,273.2871,273.2871,273.4991,273.3286,273.5555,273.3123,273.4789,273.389,273.389,273.2709,273.7815,273.5988,272.9452,273.3282,273.1692,273.6826,273.6826,273.6292,273.6292,273.676,275.4135,275.4135,273.3427,273.4042,273.4042,274.7224,274.7224,274.7224,274.7224,275.6483,275.6483,273.408,273.3976,273.3976,272.0538,272.0538,273.4608,273.4952,273.4952,273.4952,273.312,273.312,273.312,273.3386,273.3386,273.3386,273.4056,275.3861,273.4082,275.1671,274.4632,274.4632,272.8261,272.4157,271.0903,272.3286,272.8458,269.389
273.2659,273.2659,271.0387,271.0387,274.0676,274.0676,272.7946,272.7946,275.4491,274.8079,276.9091,275.5255,275.5255,274.9243,274.318,274.318,273.939,273.939,273.4246,273.0102,272.8961,274.658,273.171,273.0313,274.58,274.58,272.6133,273.0663,274.6472,273.0838,274.5559,273.0298,275.2619,273.3284,274.0287,274.7436,274.7436,273.819,273.819,273.819,273.5222,273.5222,273.5222,273.5222,274.052,273.3764,273.3764,273.0849,272.4438,272.4438,274.4672,272.8701,274.3838,273.0383,274.6696,274.5512,272.5599,272.8666,272.8666,272.8203,272.8198,274.6684,273.6863,273.6863,272.9305,272.9305,272.9221,271.7847,274.2209,274.6789,272.6682,272.9016,272.9719,272.9719,272.9719,272.9719,272.9719,272.9719,272.9719,272.9719,272.9719,272.9719,272.9719,272.9719,272.9719,272.9719,272.9719,272.9719,272.9719,268.4347,268.4347,268.4347,268.4347,268.4347,268.4347,268.4347,268.4347,268.4347,268.4347,268.4347,268.4347,268.4347,268.4347,268.4347,268.4347,268.4347,268.4347,272.9719,272.9719,270.1828,269.3506,268.4347,269.8008,270.0325,268.4347,268.4347,271.6588,271.6588,269.6397,269.1419,267.169,268.5949,268.7167,268.6693,268.6693,265.8564,265.8564,265.8564,265.8564,265.8564,265.8564,265.8564,263.5031,257.9319,249.2155,227.883,208.1756,189.5775,181.3064,179.8919,179.4986,177.6852,180.5447,186.8171,204.1124,228.5134,248.6292,255.5025,258.0076,260.5211,260.5279,263.5916,267.0767,266.1744,264.7124,263.7203,263.7203,266.3054,266.5104,266.9395,267.1849,268.2027,268.2027,268.2027,268.4978,268.4978,269.3039,269.3039,269.3039,269.8759,269.8759,270.2592,270.2592,271.3767,271.3767,272.7067,272.6847,272.526,272.526,273.4702,273.4702,273.4702,273.1754,273.1754,272.3957,272.3957,273.3189,273.3189,272.8742,272.8742,272.8742,274.4714,274.4714,273.2324,273.5874,274.6178,274.0136,273.5827,273.2871,273.2871,273.4991,273.3286,273.5555,273.3123,273.4789,273.3391,273.3391,273.2709,273.7815,273.5988,272.9452,273.3282,273.1692,273.6826,273.6826,273.6292,273.6292,273.676,273.2267,273.2267,273.4042,273.4042,273.4042,274.7224,274.7224,274.7224,274.7224,272.8219,272.8219,273.408,273.3976,273.3976,272.5625,272.5625,273.4608,273.4952,273.4952,273.4952,273.312,273.312,273.312,273.3386,273.3386,273.3386,273.4056,273.4225,273.8011,275.1671,274.4632,274.4632,272.8261,272.4157,271.0903,272.3286,272.8458,269.389
273.2659,273.2659,274.7774,274.7774,273.4318,273.4318,274.7242,274.7242,274.7953,275.1964,275.3797,275.9948,275.9948,274.532,273.8028,273.8028,273.939,273.939,273.4246,273.0102,272.8961,274.658,273.171,273.0313,274.58,274.58,272.6133,273.0663,274.6472,273.0838,274.5559,273.0298,275.2619,273.3284,274.0287,274.7436,274.7436,273.819,273.819,273.819,273.5222,273.5222,273.5222,273.5222,274.052,273.3764,273.3764,273.4801,272.8275,272.8275,273.0446,273.0446,273.446,273.446,273.446,274.4456,272.4395,272.8807,272.8807,274.4421,272.205,274.4552,273.6863,273.6863,273.1076,273.1076,272.9957,272.5534,272.7434,274.6995,272.8844,272.9274,272.9719,272.9719,272.9719,272.9719,272.9719,272.9719,272.9719,272.9719,272.9719,268.4347,268.4347,268.4347,268.4347,268.4347,268.4347,268.4347,268.4347,268.4347,268.4347,268.4347,268.4347,268.4347,268.4347,268.4347,268.4347,268.4347,268.4347,268.4347,268.4347,268.4347,268.4347,268.4347,268.4347,268.4347,272.9719,272.9719,272.9719,270.4541,268.4347,268.4347,269.9554,271.3806,268.4347,268.4347,269.7832,269.7832,271.3866,270.4569,267.6513,267.6513,267.6513,268.2528,268.2528,267.5938,267.5938,267.5938,267.5938,267.5938,257.7636,257.083,257.7241,251.7568,239.5603,220.637,197.3218,184.3309,180.5621,177.8747,179.3588,177.9566,181.6524,191.153,212.2481,237.0687,251.1337,260.6165,263.3702,262.2333,263.144,265.1769,264.6445,264.3861,266.5956,264.9158,264.9158,265.1511,265.8857,268.1109,267.0401,267.3298,268.8589,267.7287,269.7047,269.7047,269.132,271.9109,271.9109,271.0563,270.9612,271.9969,269.9192,271.7377,271.7377,272.9401,272.9401,272.8478,272.8478,273.0779,273.0779,273.4099,273.4099,273.4099,272.5922,272.5922,272.9477,272.9477,272.7471,272.7471,272.7471,272.6321,272.6321,273.0007,273.2557,273.6239,273.719,273.2182,273.3199,273.3199,273.145,273.3988,273.4559,273.0482,273.0925,273.8148,273.8148,273.5124,273.7817,274.1695,273.4571,273.2867,273.5784,273.3206,273.3206,273.6292,273.6292,273.676,272.7017,272.7017,273.4042,273.4042,273.4042,274.7224,274.7224,274.7224,274.7224,272.9835,272.9835,273.295,273.5071,273.5071,274.2856,274.2856,274.2856,274.2856,273.4952,273.4952,273.312,273.312,273.312,273.3386,273.3386,272.8632,272.8632,272.5139,272.5139,272.6989,272.6989,272.6989,273.082,273.082,273.5544,272.8048,272.2177,272.2177
273.7466,273.7466,275.9136,275.9136,273.2835,273.2835,273.2944,273.2944,274.7953,273.5693,273.8365,276.3662,276.3662,274.532,273.8028,273.8028,273.5353,273.5353,273.4736,273.4146,273.4146,273.4146,273.376,273.376,273.376,273.376,273.6302,273.6302,273.6302,273.4682,273.4682,273.4682,273.7631,273.7631,273.7631,272.696,272.696,273.819,273.819,273.819,273.5222,273.5222,273.5222,273.5222,274.052,273.3764,273.3764,273.4801,272.8275,272.8275,273.0446,273.0446,273.446,273.446,273.446,273.446,273.2461,272.8802,272.8802,274.4421,274.6451,272.6837,273.6863,273.6863,274.7415,274.7415,274.6317,273.1469,274.4437,274.8758,274.6999,272.6501,272.9719,272.9719,272.9719,272.9719,272.9719,272.9719,272.9719,272.9719,272.9719,268.4347,268.4347,268.4347,268.4347,268.4347,268.4347,268.4347,268.4347,268.4347,268.4347,268.4347,268.4347,268.4347,268.4347,268.4347,268.4347,268.4347,268.4347,268.4347,268.4347,268.4347,268.4347,268.4347,268.4347,272.9719,272.9719,272.9719,272.9719,268.4347,268.4347,268.4347,272.1933,269.7151,268.4347,268.4347,269.8226,269.8226,271.499,269.0597,267.6513,267.6513,267.6513,265.5018,265.5018,267.5938,267.5938,267.5938,267.5938,267.5938,249.2438,253.6577,249.4713,240.6062,226.2997,207.6744,189.8373,182.8074,179.8703,177.6306,177.5885,178.4769,183.7921,194.9036,216.8345,239.5679,253.7138,260.3716,264.411,264.8636,263.144,265.1769,264.6445,264.3861,266.5956,264.9158,264.9158,265.1511,265.8857,268.1109,267.0401,267.3298,268.8589,267.7287,269.7047,269.7047,269.132,271.9109,271.9109,271.0563,270.9612,271.9969,269.9192,271.7377,271.7377,272.9401,272.9401,274.2198,274.2198,273.0779,273.0779,273.4099,273.4099,273.4099,273.5793,273.5793,272.9477,272.9477,272.7471,272.7471,272.7471,272.7138,272.7138,272.5289,272.7414,272.7891,272.7086,272.4376,272.9428,272.9428,272.9292,274.591,272.9648,272.8924,272.8198,274.6356,274.6356,272.8514,274.5247,274.5984,272.8433,274.4652,274.4617,272.3781,272.3781,273.1001,273.1001,273.2151,274.4564,274.4564,272.2056,272.4321,272.707,271.8069,272.6434,272.9229,273.0777,272.9835,272.9835,273.295,273.5071,273.5071,274.2856,274.2856,274.2856,274.2856,273.5433,273.5433,273.4221,273.4221,272.9122,272.9122,272.9122,272.8632,272.8632,272.5518,272.5139,272.6989,272.6989,272.6989,273.082,273.5544,273.5544,273.5544,272.2177,272.2177
274.7524,272.5334,272.3409,272.3409,272.3418,272.3936,274.2261,274.2261,274.5741,274.782,274.782,272.8911,272.8911,272.6378,272.7995,274.4967,273.2834,273.2834,274.6002,273.105,273.0038,272.8237,272.8237,274.4203,272.5349,272.5349,272.8208,272.5759,274.6493,274.6509,272.8066,272.9916,272.9916,272.7277,272.6698,274.602,274.602,274.602,272.9152,272.6756,272.4772,272.8498,275.3004,275.3004,272.8036,274.3094,272.8259,274.4181,272.334,272.334,272.9145,272.9145,272.9145,272.789,272.6982,272.6982,272.5362,272.8807,272.8807,274.4421,274.6451,272.6837,274.4316,272.7831,274.7415,274.7415,274.7415,273.1328,274.5671,272.9943,274.6917,274.4872,272.9869,272.9869,274.5848,272.8596,272.8596,272.9265,274.3836,272.7226,272.7226,272.7058,272.8018,274.6645,274.6935,274.6043,274.6043,274.6644,272.7705,274.5467,274.6743,275.11,275.6335,275.6335,274.3624,272.5153,274.2261,272.1903,274.037,272.6104,272.6104,274.2262,272.3974,271.2123,273.207,274.0237,272.7456,272.7456,272.7456,268.4347,268.4347,268.4347,271.38,269.88,268.4347,268.4347,269.333,269.333,269.7325,269.3253,268.219,266.3875,266.3479,266.6333,266.6333,267.5938,267.5938,267.5938,267.5938,267.5938,256.72,246.9427,242.5309,237.165,218.8965,196.3577,185.6725,181.2065,179.7299,177.9972,179.8917,181.2632,187.2073,201.4115,219.8567,234.185,251.7795,258.0846,263.2962,264.8636,264.1604,264.5974,264.5974,265.2898,265.2898,267.0375,267.0375,266.2294,267.5242,267.5242,267.3596,267.3596,267.7982,267.7982,267.7343,267.7343,268.8461,269.9809,269.9809,270.1673,270.1673,270.614,270.614,271.421,271.421,272.1642,272.1642,272.5935,272.5935,272.6977,272.6977,272.9121,272.9121,272.9121,272.5371,272.5371,272.8587,272.8587,272.8654,272.8654,272.8654,272.7138,272.7138,272.5289,272.7414,272.7891,272.7086,272.4376,272.9428,272.9428,272.9292,274.591,272.9648,272.8924,272.8198,274.6356,274.6356,272.8514,274.5247,274.5984,272.8433,274.4652,274.4617,272.3781,272.3781,273.1001,273.1001,273.2151,272.7163,272.7163,272.5919,272.5968,272.0418,273.9953,271.904,273.2423,273.0777,273.1719,273.1719,273.295,273.5071,273.5071,274.2856,274.2856,274.2856,274.2856,272.3143,272.6802,274.4618,272.7268,272.9188,272.9104,272.9104,271.4242,272.2238,272.443,271.8594,272.2042,274.0189,274.0189,272.6566,274.5839,271.0144,272.525,269.7643,270.4169
274.7524,272.5334,272.3409,272.3409,272.3418,272.3936,274.2261,274.2261,274.5741,274.782,274.782,272.8911,272.8911,272.6378,272.7995,274.4967,273.2834,273.2834,274.6002,273.105,273.0038,272.8237,272.8237,274.4203,272.5349,272.5349,272.8208,272.5759,274.6493,274.6509,272.8066,272.9916,272.9916,272.7277,272.6698,274.602,274.602,274.602,272.9152,272.6756,272.4772,272.8498,275.3004,275.3004,272.8036,274.3094,272.8259,274.4181,272.334,272.334,272.9145,272.9145,272.9145,272.789,272.6982,272.6982,272.5362,272.8807,272.8807,274.4421,274.6451,272.6837,274.4316,272.7831,274.7415,274.7415,274.7415,273.1328,274.5671,272.9943,274.6917,274.4872,272.9869,272.9869,274.5848,272.8596,272.8596,272.9265,274.3836,272.7226,272.7226,272.7058,272.8018,274.6645,274.6935,274.6043,274.6043,274.6644,272.7705,274.5467,274.6743,275.11,275.6335,275.6335,274.3624,272.5153,274.2261,272.1903,274.037,272.6104,272.6104,274.2262,272.3974,271.2123,273.207,274.0237,272.7456,272.7456,272.7456,269.9803,272.3969,270.0194,269.4328,269.5378,271.4208,269.4408,268.0887,268.0887,268.219,268.219,268.9659,268.4513,266.9953,267.1295,267.1295,267.5938,267.5938,267.5938,267.5938,267.5938,259.4775,251.7545,242.8339,225.2234,206.1958,189.0217,182.4166,180.2775,179.6356,178.1444,181.6938,184.8358,193.2522,212.5997,228.313,246.4721,246.7021,256.641,261.9105,264.8601,264.8601,265.0049,265.0049,265.3361,265.3361,265.883,265.883,265.7256,267.0699,267.0699,267.0372,267.0144,267.2561,267.2561,267.0142,267.0142,267.7257,267.7257,268.5157,269.5392,269.5392,270.1445,270.1445,269.5027,269.5027,269.8038,271.6377,271.8463,271.8463,273.1526,273.9586,272.4668,272.0212,272.4128,274.1407,274.1407,272.4138,272.5872,274.1671,272.6101,273.3201,275.549,275.549,273.203,273.1351,272.7515,273.348,272.8329,273.0533,273.0533,272.9599,273.4309,273.571,273.0267,273.1559,273.5268,273.5268,273.2814,273.1306,274.0313,273.5027,273.4384,273.6484,273.1151,273.1151,272.6046,274.4835,272.6564,272.0556,272.0556,272.6006,272.5919,272.5961,272.5686,272.3092,273.1094,274.9957,272.2227,272.2227,273.295,273.5071,273.5071,275.0748,275.0748,274.2856,274.2856,272.3143,272.6802,274.4618,272.7268,272.9188,272.9104,272.9104,271.4242,272.2238,272.443,271.8594,272.2042,274.0189,274.0189,272.6566,274.5839,271.0144,272.525,269.7643,270.4169
274.7524,272.5334,272.3409,272.3409,272.3418,272.3936,274.2261,274.2261,274.5741,274.782,274.782,272.8911,272.8911,272.6378,272.7995,274.4967,273.2834,273.2834,274.6002,273.105,273.0038,272.8237,272.8237,274.4203,272.5349,272.5349,272.8208,272.5759,274.6493,274.6509,272.8066,272.9916,272.9916,272.7277,272.6698,274.602,274.602,274.602,272.9152,272.6756,272.4772,272.8498,275.3004,275.3004,272.8036,274.3094,272.8259,274.4181,272.334,272.334,272.9145,272.9145,272.9145,272.789,272.6982,272.6982,272.5362,272.8807,272.8807,274.4421,273.5621,273.5621,273.5621,273.5621,273.5621,274.6121,274.6121,274.87,274.6571,272.8705,272.8269,272.7798,274.6079,274.6079,274.8708,274.7964,272.9063,273.0379,272.3774,272.6992,272.6992,272.5366,272.563,272.7249,272.8859,272.8626,272.8626,272.6638,272.755,275.0901,275.0901,275.0901,274.5519,274.5519,272.4739,272.6754,274.5524,272.8315,272.6227,274.0152,274.0152,272.4467,272.0062,270.4337,270.5672,272.1081,273.5035,273.5035,273.5035,269.9113,269.9899,271.4787,270.002,269.1039,269.589,270.3212,267.105,267.105,268.219,268.219,267.8422,268.8062,266.5084,266.5183,266.5183,267.5938,267.5938,267.5938,267.5938,267.5938,258.6469,251.0029,230.1713,214.5315,194.2739,183.7964,179.2112,179.76,178.1399,179.6864,181.2816,187.6054,201.9967,221.3672,243.8129,253.3207,258.3661,260.6302,262.5966,264.8601,273.3412,273.3412,273.3412,265.3361,265.3361,264.2276,264.2276,265.7256,267.0699,267.0699,267.0144,267.0144,267.2561,267.2561,268.6338,268.6338,267.7257,267.7257,268.5157,269.5392,269.5392,270.1445,270.1445,269.5027,269.5027,269.8038,271.6377,271.8463,271.8463,273.1526,273.9586,272.4668,272.0212,272.4128,274.1407,274.1407,272.4138,272.5872,274.1671,272.6101,273.3201,275.549,275.549,273.203,273.1351,272.7515,273.348,272.8329,273.0533,273.0533,272.9258,273.4309,273.571,273.0267,273.1559,273.5268,273.5268,273.2814,273.1306,274.0313,273.5027,273.4384,273.6484,273.1151,273.1151,272.6046,274.4835,272.6564,272.0556,272.0556,272.4666,272.757,272.6757,272.3796,272.507,272.3186,272.8435,272.8405,272.8405,273.0778,273.4404,273.4404,272.7602,272.7602,273.0148,273.0148,272.9611,272.9611,273.127,273.127,272.6401,272.6707,272.6707,272.5377,272.5324,272.2481,272.2481,271.9083,271.9083,271.9083,272.2581,272.2581,271.716,271.716,270.5208,270.5208
272.7001,272.7001,273.8472,273.8472,273.0273,273.2943,273.2943,274.2218,274.2218,274.5504,274.5504,273.1112,273.2426,273.2426,273.4032,273.4032,272.4959,272.4959,273.9418,273.3543,273.263,273.263,273.263,273.2577,273.2577,273.2577,273.2547,273.2547,273.5189,273.5189,273.2683,273.2683,273.2683,273.2037,273.2037,274.0996,274.5165,274.5165,273.7318,273.7318,273.7318,273.0862,272.8253,272.8253,273.9417,273.9417,273.9417,272.3627,272.334,272.334,272.9145,272.9145,272.9145,272.7749,272.5994,272.5479,272.819,272.8998,272.8998,273.5621,273.5621,273.5621,273.5621,273.5621,273.5621,272.8943,272.8943,274.7633,274.4389,272.2371,272.7114,273.3572,275.8451,275.8451,274.6529,274.377,272.9767,274.6227,274.5104,272.8422,272.8422,272.6836,274.4825,272.7461,274.5518,274.4821,274.4821,274.4702,272.805,274.6386,275.0901,275.0901,273.1249,273.1249,272.2162,272.6835,274.6555,274.4119,272.4811,271.2396,271.2396,272.4185,273.4377,270.7805,272.6533,270.4579,271.9184,271.9184,271.9184,269.6084,271.287,269.2417,269.0586,269.6407,269.6407,269.8435,269.6646,269.6646,269.6646,268.9923,267.2198,268.9394,269.0236,269.8518,269.8518,268.347,267.3587,260.3537,251.0116,255.2207,251.5046,239.5379,221.2558,199.6837,186.9914,180.3798,177.8605,179.6167,180.871,178.7214,183.3258,193.3368,212.3162,235.6812,248.2228,256.8055,259.8743,263.1448,265.2063,264.8601,273.3412,273.3412,273.3412,265.3361,265.3361,264.3947,264.3947,265.7256,267.0699,267.0699,267.0144,267.0144,267.2561,267.2561,267.3203,267.3203,268.0693,268.5157,268.5157,269.5392,269.5392,270.1445,270.1445,269.1358,269.1358,270.4786,270.4786,269.9594,269.9594,272.0518,272.0518,272.5717,272.5717,272.5717,272.4503,272.4503,273.3048,273.3771,274.0489,274.0489,274.0489,275.0085,275.0085,274.3575,273.5195,272.7515,273.1775,273.7633,273.2212,273.2212,273.2523,273.0287,273.3748,273.397,273.313,273.0211,273.0211,273.2713,273.5948,274.0445,274.1316,273.9189,273.5681,273.5039,273.5039,273.65,273.65,273.0015,274.1281,274.1281,272.6832,274.6527,274.4171,272.4111,274.1515,272.1009,274.2468,272.642,272.642,273.0778,273.4404,273.4404,271.5632,271.5632,273.0148,273.0148,273.1781,273.1781,272.494,272.494,272.0987,272.0987,272.0987,272.3512,272.3512,272.1602,272.1602,271.0772,271.0772,271.0772,270.3939,270.3939,270.7729,270.7729,270.33,270.33
272.7001,272.7001,271.8291,271.8291,273.0273,273.2943,273.2943,274.2218,274.2218,273.1209,273.1209,273.1112,273.2426,273.2426,273.4032,273.4032,274.3723,274.3723,273.3543,273.3543,273.263,273.263,273.263,273.2577,273.2577,273.2577,273.2547,273.2547,273.5189,273.5189,273.2683,273.2683,273.2683,273.2037,273.2037,274.0996,274.5165,274.5165,273.7318,273.7318,273.7318,272.5961,272.7574,272.7574,273.9417,273.9417,273.9417,272.8547,272.9688,272.8838,272.9145,272.9145,272.9145,274.4196,272.7348,274.4571,273.0279,272.882,272.882,273.5621,273.5621,273.5621,273.5621,273.5621,273.5621,272.6113,272.6113,272.5988,273.1591,273.1591,274.4525,273.2357,275.5424,275.5424,273.1089,272.3098,274.4465,273.1915,274.7807,274.6081,274.6081,272.5975,274.3383,272.7018,272.8234,272.7514,272.7514,274.4631,272.8564,274.4361,272.731,274.6639,274.7038,274.7038,272.5051,272.2906,274.0372,272.6097,272.101,272.3955,272.3955,272.4636,272.5244,273.4167,270.6151,271.9184,271.9184,271.9184,271.9184,269.6084,271.287,269.2417,269.0586,269.6407,269.6407,269.8435,269.6646,269.6646,269.6646,268.9923,267.2198,268.9394,269.0236,269.8518,269.8518,281.0551,266.64,261.1909,253.9317,242.0671,240.2472,220.8118,204.2578,189.3356,182.0109,178.535,177.4706,177.941,179.7338,179.5759,186.9425,202.5726,225.2872,238.3903,251.9424,250.7637,256.4582,262.6908,264.2162,264.8601,281.0551,269.8518,263.7448,265.6274,266.7943,265.9114,265.9114,264.282,264.7645,265.2156,268.6122,266.4981,266.4912,266.3535,266.7077,266.7077,268.7438,269.8218,267.2108,267.1784,270.2574,270.6181,270.6181,269.3385,269.3385,270.4786,270.4786,269.9384,269.9384,272.0518,272.0518,272.5717,272.7462,272.7462,273.4159,273.4159,271.6558,271.6558,274.0489,274.0489,274.0489,273.2678,273.2678,272.8239,272.8112,272.6819,274.4856,274.4171,272.4935,272.4935,272.8067,272.7711,272.8832,272.9572,272.8068,272.6,272.6,272.6,274.5292,274.4884,274.1561,273.9702,274.2771,274.0451,274.0451,273.65,273.65,273.0015,272.4098,272.4098,274.2535,274.5754,274.7555,274.3659,272.8276,272.9998,272.299,272.2615,272.2615,273.0778,273.4404,273.4404,274.1483,274.1483,273.0148,273.0148,273.1781,273.1781,272.494,272.494,272.0987,272.0987,272.0987,272.3512,272.3512,272.1602,272.1602,271.0772,271.0772,271.0772,270.3939,270.3939,270.7729,270.7729,270.33,270.33
272.3412,272.3412,272.3412,272.3412,273.0452,273.4225,273.4225,273.9991,273.9991,274.6561,274.6561,272.989,272.9536,272.9536,273.2337,273.2337,272.9096,272.9096,273.3524,273.3524,273.6567,273.6567,273.6567,273.3811,273.2801,273.2801,273.2746,273.2547,273.5189,273.5189,273.2683,273.2683,273.2683,273.2037,273.2037,274.0996,274.5165,274.5165,273.7318,273.7318,273.7318,272.5021,274.2642,274.2642,273.9417,273.9417,273.9417,272.885,274.9129,272.6568,272.6125,273.1288,275.2301,273.2395,274.6057,272.744,274.6207,272.8954,272.8954,273.5621,273.5621,273.5621,273.5621,273.5621,273.5621,274.5442,274.5442,272.6667,273.1591,273.1591,272.8525,272.6386,272.9128,272.9128,274.5965,272.9993,273.4695,275.705,273.1256,272.7946,272.7946,272.9582,272.3174,274.2183,272.6675,274.5032,274.5032,273.0096,274.5512,272.5275,272.8765,274.5834,273.1144,273.1144,274.3664,272.6123,271.9708,271.3168,272.4216,272.4644,272.4644,272.3369,274.191,272.479,273.7622,272.3763,271.9075,271.9075,271.5928,269.808,269.2141,269.5482,269.3894,269.9021,269.9021,269.9833,270.8468,269.1454,269.1454,269.665,268.3159,267.5796,267.5262,269.8518,269.8518,281.0551,264.6026,262.0035,252.6088,240.735,220.7266,205.5938,190.3162,184.3135,180.5416,177.8006,179.4411,179.5655,179.8761,182.4092,191.251,211.5882,235.3787,247.5485,248.8631,257.2584,259.444,259.8194,261.3528,264.5984,281.0551,269.8518,263.7448,265.6274,266.7943,265.9114,265.9114,264.282,264.7645,265.2156,268.6122,266.4981,266.4912,266.3535,266.7077,266.7077,268.7438,269.8218,267.2108,267.1784,270.2574,270.6181,270.6181,269.3385,269.3385,270.959,270.959,271.7306,271.7306,271.2245,271.2245,272.4166,272.7462,272.7462,270.8614,270.8614,273.257,273.257,274.0336,274.0336,274.0336,273.2678,273.2678,272.8239,272.8112,272.6819,274.4856,274.4171,272.4935,272.4935,272.8067,272.7711,272.8832,272.9572,272.8068,272.6,272.6,272.6,274.5292,274.4884,274.1561,273.9702,274.2771,274.0451,274.0451,273.65,273.65,273.0015,272.1559,272.1559,272.0733,272.5754,274.4986,274.4986,273.2547,275.5008,274.2831,272.3364,272.3364,272.4615,274.5875,275.6067,274.3012,274.3012,272.2978,272.2978,272.4902,272.983,270.3162,272.8881,272.3855,271.5133,271.5133,272.3669,271.8068,270.0634,270.2489,269.7365,270.7322,270.7322,267.0548,268.0744,270.2829,271.0582,269.7555,269.7555
272.3412,272.3412,272.3412,272.3412,272.9109,272.9916,272.5709,273.0857,273.0949,273.1091,273.1091,272.0817,272.6511,272.6971,272.893,272.8623,272.9415,272.9415,273.0658,273.0184,273.0184,273.2249,273.2249,274.5603,273.2207,273.2207,273.2801,273.2547,273.5189,273.5189,273.2683,273.2683,273.2683,273.2037,273.2037,274.0996,274.4632,274.4632,274.4025,273.0877,274.3557,272.6596,272.583,272.583,273.9417,273.9417,273.9417,272.8026,272.4633,272.8784,272.18,273.0815,275.2296,273.1321,274.5157,272.793,274.5521,272.7351,272.7351,273.5621,273.5621,273.5621,273.5621,273.5621,273.5621,272.7686,272.7686,272.7615,272.5691,272.6027,274.4364,272.6479,272.6637,272.6637,274.7036,273.0667,275.4421,274.5935,272.7724,274.3821,274.3821,274.3981,274.4169,272.8808,272.9033,274.348,274.348,275.5287,274.6202,272.5202,272.9183,275.0112,272.4005,272.4005,272.835,272.6268,274.0017,273.9994,272.3401,272.0192,272.0192,272.4417,272.3364,272.3383,274.3061,272.2799,271.7408,271.7408,271.8281,269.8632,269.4547,269.3652,271.3148,271.555,271.555,270.9028,268.8783,267.3093,267.3093,269.5299,264.9285,265.9462,263.5227,265.6537,264.8127,261.0322,260.8731,255.9006,245.3008,224.2269,206.7108,191.3654,184.9183,181.1845,179.7033,177.6225,179.3768,177.7334,180.54,185.025,198.2656,219.0297,236.4185,252.0427,257.5036,260.2112,262.1033,261.9903,262.931,264.5984,275.4535,265.011,265.011,265.5998,265.5998,265.9489,265.9489,265.2624,265.9964,265.9964,265.8534,265.8534,267.3122,267.3122,266.5722,266.5722,267.843,268.231,268.5164,269.0682,269.0682,269.6388,269.6388,271.3862,271.3862,270.959,270.959,272.5148,272.5148,271.2245,271.2245,272.4166,272.4166,272.4166,272.0764,272.0764,273.257,273.257,274.0336,274.0336,274.0336,275.2502,275.2502,273.0791,272.9773,272.8358,273.2911,274.0952,273.6523,273.6523,273.5489,272.8821,273.0759,273.1158,272.8332,272.6,272.6,272.6,273.5442,274.0417,273.4256,273.3282,273.5612,273.6806,273.6806,273.4064,273.4064,272.3764,272.1559,272.1559,272.0733,272.5754,274.4986,274.4986,273.2547,275.5008,274.2831,272.3364,272.3364,272.4615,274.5875,275.6067,274.3012,274.3012,272.2978,272.2978,272.4902,272.983,270.3162,272.8881,272.3855,271.5133,271.5133,272.3669,271.8068,270.0634,270.2489,269.7365,270.7322,270.7322,267.0548,268.0744,270.2829,271.0582,269.7555,269.7555
272.3412,272.3412,272.3412,272.3412,272.9109,272.9916,272.5709,273.0857,273.0949,273.1091,273.1091,272.0817,272.6511,272.6971,272.893,272.8623,272.9415,272.9415,273.0658,273.0184,273.0184,273.2249,273.2249,274.5603,273.2207,273.2207,273.2801,272.9781,272.8622,272.8105,274.7472,273.2683,273.2683,273.2037,273.2037,274.0996,274.4632,274.4632,274.4025,273.0877,274.3557,272.6596,272.583,272.583,272.7998,274.2057,272.326,272.7532,272.5457,274.3387,274.3631,272.9119,272.435,274.4167,273.0416,274.546,274.5985,272.8089,272.8089,273.5621,273.5621,273.5621,273.5621,273.5621,272.5923,272.5923,272.5923,274.4219,272.8164,274.3677,274.5318,272.9169,272.9434,272.9434,273.6524,273.3937,272.8086,272.8568,272.7225,274.4718,274.4718,273.0964,274.9449,275.8314,272.7253,272.4482,272.4482,273.11,274.412,272.4953,272.7019,272.7885,272.6513,272.6513,272.5908,274.2686,272.4033,272.4033,272.4033,272.4663,272.4663,272.3222,270.8552,272.311,272.1032,272.6438,269.9328,269.9328,272.6428,271.3248,269.4072,269.5567,269.1861,269.6126,269.6126,268.8506,267.4951,267.7188,267.7188,269.4221,269.4221,269.4221,269.4221,269.4221,263.3681,255.4251,252.0626,245.0696,228.269,209.8099,192.7299,183.9704,181.2608,180.0278,177.9113,177.576,177.8945,178.3016,181.2587,191.4387,209.0071,228.6486,244.3128,250.5056,255.1248,259.7904,263.5153,263.5404,265.2049,264.5984,272.4,272.4,265.011,265.5998,265.5998,266.0534,266.0534,265.2624,266.0196,265.9964,267.1466,267.1466,267.3122,267.3122,268.4035,268.4035,267.843,268.231,268.231,269.0682,269.0682,269.6388,271.5628,271.5628,271.5628,270.8798,270.8798,269.8977,269.8977,270.9364,270.9364,271.4768,271.4768,271.4768,273.1687,273.1687,273.257,273.257,273.45,273.45,273.45,272.4568,272.4568,273.0791,272.9773,272.8358,273.2911,274.0952,273.6523,273.6523,273.5489,272.8821,273.0759,273.1158,272.8332,272.7163,272.7163,273.5442,273.5442,274.0417,273.4256,273.3282,273.5612,273.6806,273.6806,273.4064,273.4064,272.3764,270.4059,270.4059,273.08,273.08,272.5273,272.5273,273.08,273.08,271.0764,271.9017,271.9017,272.2701,270.9145,270.9145,270.9145,271.5335,269.3171,269.3171,272.6404,272.6404,268.6244,263.5627,265.536,263.2896,268.0421,270.7147,269.8919,269.8919,269.8919,269.8919,269.6678,269.6678,270.8952,270.8952,270.8952,270.8952,270.9191,270.9191
272.3412,272.3412,272.3412,272.9109,272.9109,271.9601,274.1,274.3197,272.8587,274.4137,274.4137,275.0771,272.995,272.7389,272.6335,272.9667,274.5882,274.5882,275.3322,273.0016,273.0016,273.0081,272.8018,272.507,273.1092,273.1092,272.9384,274.6261,274.8453,274.7904,274.5717,274.2519,274.2519,274.6577,275.4594,274.6121,273.027,273.027,272.7036,274.4206,274.4063,274.2869,272.2523,272.2523,274.3429,272.7256,272.8111,274.2927,272.4434,272.533,272.579,272.4926,274.3644,274.6903,272.7498,274.3725,272.8011,272.8089,272.8089,273.5621,273.5621,273.5621,273.5621,273.5621,272.5923,272.5923,272.5923,274.4219,272.8164,274.3677,274.5318,272.9169,272.9434,272.9434,273.6524,273.3937,272.8086,272.8568,272.7225,274.4718,274.4718,273.0964,274.9449,275.8314,272.7253,272.4482,272.4482,273.11,274.412,272.4953,272.7019,272.7885,272.6513,272.6513,272.5908,274.2686,272.4033,272.4033,272.4033,272.4663,272.4663,272.3222,270.8552,272.311,272.1032,272.6438,269.9328,269.9328,272.6428,271.3248,269.4072,269.5567,269.1861,269.6126,269.6126,268.8506,267.4951,267.7188,267.7188,267.0617,267.0617,267.0617,267.0617,266.3951,266.3951,251.8961,237.9516,226.6703,210.7181,194.4678,185.1061,180.1156,178.2339,179.6546,179.7379,179.6947,179.7598,181.59,185.6064,198.5669,221.5767,240.051,244.0462,246.5971,255.258,257.9496,260.7777,262.3303,264.1924,264.5984,264.5984,264.5776,264.5776,265.3758,265.3758,264.2867,264.2867,265.1707,265.3929,266.9139,266.3714,266.3714,267.2885,267.2885,268.5201,268.5201,267.2424,267.8502,267.8502,268.7077,268.7077,268.6763,268.6763,268.6763,268.6763,270.8798,268.4647,269.593,269.593,270.9364,270.9364,271.4768,271.4768,271.4768,273.0981,273.0981,272.8382,272.8382,273.45,273.45,273.45,272.4027,272.4027,272.2223,272.3418,272.315,272.7063,273.3959,272.9517,272.9517,273.0077,272.8522,272.7232,272.7169,273.0829,272.8546,272.8546,273.5442,273.5442,272.2392,272.1327,272.7478,272.7535,273.1756,273.1756,273.4064,273.4064,272.3764,272.1472,272.1472,273.08,273.08,271.966,271.966,273.08,273.08,271.0764,269.9861,269.9861,270.9145,270.9145,270.9145,270.9145,271.5335,271.1866,271.1866,263.7427,270.4269,267.5411,265.5694,254.7499,261.8513,264.6612,268.9924,269.8919,269.8919,269.8919,269.8919,269.1603,269.1603,270.8952,270.8952,270.8952,270.8952,268.7903,268.7903
272.2031,272.6744,272.6744,272.9496,272.9496,272.8645,272.1512,272.3153,272.2786,272.8465,272.8465,272.9161,274.6668,274.5406,272.8821,273.0043,272.9321,272.9321,273.1538,273.0795,273.0795,274.5077,274.4915,272.8815,272.95,272.95,272.7634,274.8142,274.8801,274.6859,272.6928,271.9045,271.9045,274.5197,272.979,272.7755,272.72,272.72,272.634,272.7489,272.4163,272.4928,272.6518,272.6518,272.9059,271.9844,273.7915,274.6707,272.6418,274.4366,272.6873,272.6301,274.5096,274.7869,272.7837,272.1926,274.3616,274.6618,274.6618,275.0673,274.608,272.8875,272.4786,272.6499,274.3447,274.4667,274.4667,272.5647,272.4346,274.1249,274.4574,274.4572,274.4661,274.4661,272.6781,272.2072,271.6867,272.3853,272.116,274.1228,274.1228,271.7275,271.7275,271.7275,271.7275,272.3033,272.3033,274.5034,272.698,271.5455,271.7792,272.3791,274.2252,274.2252,272.7549,273.3493,273.3493,273.3493,273.3493,272.5799,272.5799,272.6631,273.0241,269.5112,270.7697,269.5323,271.1414,271.1414,270.937,269.1678,271.0827,269.6217,268.2949,268.5637,268.5637,269.2388,269.2388,269.2388,269.2388,267.0617,267.0617,267.0617,267.0617,249.7103,249.459,239.256,222.6272,208.4932,193.8978,186.0188,181.972,180.1257,179.5187,177.9046,180.4657,179.5078,180.0449,181.1659,190.857,209.1971,230.8316,247.3594,254.074,254.5101,249.6837,256.8466,255.3069,259.0495,261.495,264.6901,264.6901,264.5776,264.5776,265.3758,265.3758,264.4825,264.4825,265.1707,265.3929,265.3929,266.3714,266.4128,267.2885,267.2885,266.8157,266.8157,267.6679,267.8502,267.8502,268.7077,268.7077,268.6763,268.6763,268.6763,268.6763,270.5487,268.4647,271.1795,271.1795,268.3123,268.3123,268.3123,271.5718,271.5718,270.2048,270.2048,271.5966,272.6205,272.6205,272.6205,272.6205,271.7337,271.7337,271.7828,271.8866,271.789,273.7139,272.6069,272.4959,272.4959,272.7912,272.2286,272.7672,272.0383,273.5578,272.2402,272.2402,273.076,271.0018,269.9824,271.7401,272.3009,272.3098,273.1756,273.1756,273.4064,273.4064,272.3764,272.1472,272.1472,272.1281,272.1281,271.6614,271.6614,272.1104,271.4594,271.4594,269.8165,269.8165,270.9145,270.9145,270.9145,270.9048,270.0422,269.9587,269.9587,263.7427,263.7427,265.8841,264.9474,259.4109,249.8786,259.9116,265.7496,269.8919,269.8919,269.8919,269.8919,270.6886,270.6886,270.8952,270.8952,270.8952,270.8952,265.4815,265.4815
272.7506,272.9633,272.9633,272.9496,272.9496,272.8645,272.8645,273.2733,273.2733,274.3353,274.3353,273.4618,273.2911,273.2911,273.2267,273.2267,272.769,272.769,273.3374,273.3374,273.3374,274.373,274.373,273.482,273.482,273.482,273.0994,273.0994,273.0975,273.0975,272.7223,272.651,272.651,272.5893,272.9755,272.9755,272.1861,272.1861,274.4967,274.5262,272.5696,272.4553,272.3608,272.3608,274.1466,272.5823,271.9487,270.7189,273.0504,274.2959,273.0215,273.1364,275.7265,274.7566,272.7007,272.7851,274.3986,273.0921,273.0921,275.6011,272.9928,274.6122,274.571,272.9169,272.0918,272.7475,272.7475,272.3288,271.5482,272.4149,272.2399,272.4961,272.7939,272.7939,274.3821,272.9031,272.3628,272.3157,273.5386,272.221,272.221,271.7275,271.7275,271.7275,271.7275,273.6791,273.6791,272.1651,271.5495,273.7061,272.3542,272.0982,272.5046,272.5046,274.0476,273.3493,273.3493,273.3493,273.3493,271.5921,271.5921,271.0386,270.2855,269.5112,268.6038,271.2248,271.3706,271.3706,269.6502,268.0459,270.4911,270.7822,268.3679,268.8651,268.8651,269.2388,269.2388,269.2388,269.2388,267.0617,267.0617,267.0617,267.0617,250.4381,232.4481,220.7307,208.3024,192.3541,184.5705,180.4305,178.8475,180.8745,177.9103,177.6059,176.77,178.1769,180.8714,186.2133,198.2319,220.2091,238.5623,250.0583,256.493,258.4989,256.8745,250.9964,257.5896,261.3908,263.9006,264.6901,264.6901,264.5776,264.5776,265.3758,265.3758,266.0473,266.0473,265.1707,265.3929,265.3929,266.3714,266.3714,267.2885,267.2885,268.6252,268.6252,267.4135,267.8502,267.8502,268.7077,268.7077,268.6763,267.8432,267.8432,267.8432,271.3465,269.3106,267.0316,267.0316,269.1135,269.1135,269.9734,272.1331,269.7483,270.0455,270.0455,271.6235,272.6205,272.6205,272.6205,272.6205,271.7337,271.7337,271.7828,271.8866,271.789,273.7139,272.6069,272.4959,272.4959,272.7912,272.2286,272.7672,272.0383,273.5578,272.2402,272.2402,273.076,271.0018,269.9824,271.7401,272.3009,272.3098,273.1756,273.1756,271.8982,271.8982,271.4532,271.3624,271.3624,271.0114,271.0114,269.9441,269.9441,270.6717,270.2709,270.2709,269.9272,269.9272,270.9145,270.9145,270.9145,270.9145,270.0422,268.6062,268.6062,258.8792,258.8792,268.2494,266.0272,259.4527,248.1006,256.0107,257.9377,279.4527,269.0233,269.7971,269.7971,269.4085,269.4085,269.3939,268.4259,263.3106,262.4862,260.304,260.304
272.7506,272.9633,272.9633,273.1769,273.1769,273.4586,273.4586,273.31,273.31,272.5255,272.5255,273.0685,273.496,273.496,273.3342,273.3342,272.4899,272.4899,273.121,273.121,273.121,274.373,274.373,273.482,273.482,273.482,273.08,273.08,273.0975,273.0975,272.7101,272.651,272.651,272.5893,272.9755,272.9755,272.1861,272.1861,272.719,274.1074,272.5954,272.0379,272.7986,272.7986,272.3966,272.1727,271.5813,269.6544,271.0102,274.4637,273.1543,275.2402,272.998,274.5291,274.6639,272.8499,272.6418,275.1906,275.1906,272.8129,272.9893,274.8571,275.5434,272.7167,274.1646,272.101,272.101,272.4077,272.2322,272.0775,273.6624,272.1034,273.9419,273.9419,274.6511,275.2871,274.0646,272.9272,272.9272,272.7687,272.7687,271.7275,271.7275,271.7275,271.7275,271.0068,271.0068,270.7443,271.6492,273.5159,271.481,270.3926,262.1587,262.1587,271.9738,273.3493,273.3493,268.137,268.137,271.5645,271.5645,269.0776,269.5112,269.5112,271.1511,269.8599,271.5057,271.5057,265.0761,266.2491,267.0663,268.9629,269.5841,270.4273,270.4273,269.1757,267.7369,265.2862,265.2862,267.0617,267.0617,267.0617,267.0617,240.9298,220.6405,204.376,192.2541,184.8837,181.3948,178.276,177.9149,179.7262,178.2302,179.3849,179.3984,179.7466,184.0619,192.7987,212.1539,230.2449,240.2657,247.0588,258.5045,260.7078,258.3323,259.4289,260.2583,263.7297,265.2294,264.6901,264.4854,264.144,265.6069,265.7577,264.3411,264.3104,264.3104,265.9258,264.7816,265.317,265.4249,267.3604,266.07,266.3217,267.8137,267.8137,266.3006,268.5265,269.457,267.1015,269.0597,267.5722,267.8432,267.8432,267.8432,271.3465,269.3106,267.0316,267.0316,269.1135,269.1135,269.9734,272.1331,269.7483,270.0455,270.0455,271.6235,272.6205,272.6205,272.6205,272.6205,270.0424,270.0424,271.2635,271.433,271.1322,271.8917,272.041,272.0622,272.0622,272.1077,271.8582,272.3846,272.2315,271.77,272.3961,272.3961,271.7652,271.693,270.9555,270.6573,272.4578,271.5578,271.5211,271.5211,271.8982,271.8982,271.4532,269.5196,269.5196,271.0114,271.0114,271.462,271.462,270.6717,270.2709,270.2709,269.7871,269.7871,271.8005,271.1021,271.1021,271.4641,269.6752,268.6062,268.6062,258.8792,258.8792,268.2494,259.981,257.2735,252.339,245.0096,258.4578,279.4527,269.0233,269.7971,269.7971,269.4085,269.4085,269.7317,269.3606,264.135,262.4862,260.304,260.304
272.7506,272.9633,272.9633,273.1769,273.1769,273.4586,273.4586,273.31,273.31,272.515,272.515,273.0685,273.496,273.496,273.3342,273.3342,272.7478,272.7478,273.121,273.121,273.121,274.373,274.373,273.482,273.482,273.482,273.08,273.08,273.0975,273.0975,272.9692,273.1367,273.1367,272.5893,272.9755,272.9755,272.1861,272.1861,272.719,274.1074,272.5954,272.0379,272.7986,272.7986,272.3966,272.1727,271.5813,269.6544,271.0102,274.4637,273.1543,275.2402,272.998,274.5291,274.6639,272.8499,272.6418,275.1906,275.1906,272.8129,272.9893,274.8571,275.5434,272.7167,274.1646,272.101,272.101,272.4077,272.2322,272.0775,273.6624,272.1034,273.9419,273.9419,274.6511,275.2871,274.0646,272.9272,272.9272,272.7687,272.7687,271.7275,271.7275,271.7275,271.7275,271.0068,271.0068,270.7443,271.6492,273.5159,271.481,270.3926,262.1587,262.1587,262.1587,267.9102,266.5449,263.8328,266.8241,266.2052,264.481,261.3557,269.2815,269.2997,272.2051,250.5,250.5,250.5,250.5,250.5,250.5,265.3631,268.9634,267.4013,266.827,265.7172,267.4322,265.2862,262.476,258.4819,252.2369,241.1763,236.9344,222.3442,204.2486,190.3834,183.6183,181.4314,180.1949,179.8216,179.7231,179.8195,180.8585,179.7929,179.8178,181.0105,188.0511,206.7243,224.7368,243.8723,252.5558,255.8718,257.2192,261.3803,262.2607,262.307,262.8303,263.149,263.6967,265.1432,264.4854,264.144,265.6069,265.7577,264.3411,264.3104,264.3104,265.9258,264.7816,265.317,265.4249,267.3604,266.07,266.3217,267.8137,267.8137,266.3006,268.5265,269.457,267.1015,269.0597,267.5722,267.8432,267.8432,267.8432,269.4821,269.4532,268.4452,268.4452,268.8081,268.8081,269.3433,269.9103,270.8093,270.3828,270.3828,270.295,272.6205,272.6205,272.6205,272.6205,270.567,270.567,271.2635,271.433,271.1322,271.8752,272.0517,272.0622,272.0622,272.1077,271.8582,272.3846,272.2315,271.77,272.3961,272.3961,271.7652,271.693,270.9555,270.6573,272.4578,271.5578,271.5211,271.5211,271.8982,271.8982,271.4532,269.5489,269.5489,271.0114,271.0114,269.8378,269.8378,270.6717,270.2709,270.2709,269.7871,269.7871,271.8005,271.1021,271.1021,271.4641,269.6752,268.6062,268.6062,258.8792,258.8792,246.3096,249.0675,244.74,241.6903,238.7333,258.4578,270.4114,270.4114,269.7971,269.7971,269.4085,269.4085,269.7317,269.3606,264.135,262.4862,260.304,260.304
269.3527,271.0455,273.9399,272.5293,274.1916,272.6211,272.6211,275.1771,272.8972,274.4991,274.4991,272.7111,274.3438,274.3438,272.7798,274.9194,272.6295,272.6295,272.677,274.46,274.46,271.9372,274.2859,272.8994,272.7126,272.7126,272.6769,272.6333,272.7226,274.4907,272.8437,272.6892,272.6892,271.1478,272.9986,271.4729,272.2881,272.2881,273.9971,272.2151,272.5497,274.1319,274.3701,274.3701,273.8737,272.1693,272.963,271.2164,268.4323,270.8461,272.507,272.132,271.8521,272.3018,272.5029,272.6283,272.4236,272.4509,272.4509,272.4677,272.5294,274.1134,272.001,272.146,273.6824,272.3311,272.3311,271.5346,271.9214,272.3083,264.8629,265.6156,264.7376,268.3279,267.6849,268.9297,271.012,269.5139,264.3868,259.7471,263.3896,262.9061,260.2899,257.709,255.7982,259.8035,259.8035,257.1678,259.5089,260.4625,260.0183,261.7145,262.1587,262.1587,265.1759,263.6567,258.0836,256.4041,259.7684,260.6795,255.4517,266.226,266.6274,268.99,269.6932,250.5,250.5,250.5,250.5,250.5,250.5,258.96,261.7154,262.4984,260.0752,261.666,262.9035,258.8209,253.2151,249.9002,241.0124,228.298,214.8699,199.8771,190.9959,183.7081,179.7739,178.5056,181.1245,179.8842,179.8182,178.2551,178.2698,178.6235,179.569,186.213,199.9724,218.0251,240.1308,252.5438,259.5943,261.0464,261.6655,262.4297,264.027,263.1767,263.6901,262.3221,265.0151,265.1432,265.1432,265.0915,265.0915,264.9399,264.9399,263.8461,263.8461,265.3761,265.5606,265.5606,265.6762,265.6762,265.7885,265.7885,266.4624,266.4624,267.4135,268.403,268.2792,268.2792,267.8424,268.0338,268.0338,267.6401,267.6401,269.4821,269.4532,268.4452,268.4452,268.8081,268.8081,269.3433,269.9103,270.8093,270.3828,270.3828,270.295,272.6205,272.6205,272.6205,272.6205,269.776,269.776,270.6776,270.7117,270.4308,270.454,271.3062,271.2578,271.2578,271.2215,271.1234,271.0799,270.8528,270.6987,270.7501,270.7501,271.2231,271.1809,271.5696,271.1047,272.4578,270.5832,270.9772,270.9772,270.3192,270.3192,269.9919,268.3865,268.3865,270.2177,270.2177,271.7128,271.7128,270.5896,269.9048,268.9338,270.8845,270.8845,271.2625,268.3135,268.3135,261.6904,264.5394,263.5481,262.2164,257.0949,246.7585,233.2373,226.7482,222.0696,221.2979,226.3339,241.7852,254.3872,264.0807,268.9614,268.9614,268.8444,268.8444,267.5943,266.2745,266.2745,263.4844,265.1921,265.1921
269.3527,271.0455,273.9399,272.5293,274.1916,272.6211,272.6211,275.1771,272.8972,274.4991,274.4991,272.7111,274.3438,274.3438,272.7798,274.9194,272.6295,272.6295,272.6768,274.46,274.46,271.9372,274.2859,272.8994,272.7126,272.7126,272.6769,272.6333,272.7226,274.4907,272.8437,272.6892,272.6892,271.1478,272.9986,271.4729,272.2881,272.2881,272.4002,270.8231,272.1853,271.7436,272.2776,272.2776,272.6989,271.4652,269.8049,270.9216,269.4082,266.9227,269.4454,272.5978,271.7492,272.465,271.5309,274.0652,274.2107,272.2829,271.7951,273.826,272.7225,271.8112,272.2087,270.4483,271.1651,269.041,269.5535,267.4543,272.074,270.1576,265.4781,254.8016,261.6779,261.1707,259.4898,261.6074,263.0503,258.0989,252.8225,243.3257,250.1633,249.8536,243.8772,237.6002,238.5335,233.145,236.6728,233.1176,239.3067,240.1768,240.4716,236.4084,245.5099,247.0705,249.8711,249.6357,246.3057,244.3229,251.9106,247.5438,258.9962,263.6187,267.2808,266.701,267.5591,250.5,250.5,250.5,250.5,250.5,250.5,246.5794,254.2626,254.6062,248.7614,252.656,249.7394,246.5597,236.2576,229.0547,221.0414,208.0013,195.1911,187.7018,182.4162,181.9352,180.095,179.6833,178.1231,178.2155,179.6511,179.815,181.3985,182.0165,186.3507,194.8465,215.012,231.9146,246.9477,257.2196,261.6654,263.8909,264.3639,263.124,265.0441,263.4051,263.3457,265.0352,263.8968,265.1432,265.1432,265.0915,265.0915,264.9399,264.9399,265.8582,265.8582,265.3761,265.5606,265.5606,265.6762,265.6762,265.7885,265.7885,267.3294,267.3294,267.4135,268.403,268.2792,268.2792,267.8424,268.0338,268.0338,267.8485,267.8485,269.157,270.2849,269.2994,269.2994,268.5105,269.0554,269.0165,268.4203,270.5332,270.9735,270.9735,269.6198,271.0345,272.0934,271.6157,269.9286,271.3325,271.3325,271.2458,269.7114,269.7792,269.763,272.119,270.124,270.124,270.033,269.7755,269.6046,269.6484,269.9462,269.6601,269.6601,270.1795,271.881,271.7665,270.0181,270.498,269.4394,271.3385,271.3385,270.3192,270.3192,269.9919,268.9673,268.9673,270.2177,270.2177,269.8939,269.8939,270.5896,269.9048,268.9338,268.0885,268.0885,267.6372,269.782,269.782,263.7676,253.9174,256.4642,249.1071,241.6236,224.3997,212.8815,202.7904,198.5404,199.9462,209.5122,224.544,246.1298,257.949,268.9614,268.9614,269.1837,269.1837,267.5943,266.2745,266.2745,263.4844,264.5764,264.5764
269.7636,272.5934,274.187,272.5319,272.2041,272.5394,272.5394,273.4945,273.4945,273.1969,273.1969,273.5641,273.5641,273.5641,273.4237,273.4237,273.4669,273.4669,272.6333,272.9123,272.5998,273.3044,273.3044,273.3044,274.3642,274.3642,274.4262,274.4277,272.5958,274.2487,272.6768,274.3253,272.4476,271.2836,269.6521,269.9385,271.9159,271.9159,271.4333,272.3336,272.4791,272.5671,272.1318,272.1318,273.5214,272.9086,267.8207,269.3362,268.4077,264.1265,268.3127,268.2576,273.1677,272.2137,271.9943,271.8959,272.6571,271.9307,271.2047,271.5738,273.7477,272.4216,270.0971,267.9416,265.8956,266.5012,260.9211,264.9586,266.6437,267.6717,263.8677,259.0567,247.6011,251.4182,242.3719,248.0363,244.7027,238.7604,228.1927,225.6162,224.7996,222.403,218.9756,216.2361,213.1263,211.654,210.0214,210.301,210.2127,212.1682,212.7171,214.6101,216.9433,221.9337,223.1797,223.3062,226.8761,231.7477,231.0138,241.4636,246.5729,252.4255,255.4017,257.8948,256.851,250.5,250.5,250.5,250.5,250.5,250.5,244.6277,235.1111,240.4473,238.3241,230.9512,228.0732,223.3724,214.8889,205.4198,198.2964,190.468,185.5574,181.8772,179.1366,178.1955,179.6303,179.5228,177.8508,180.361,178.5032,180.2783,184.5603,190.9546,198.4702,212.5356,227.5582,241.5396,253.0089,259.2234,261.2631,261.1331,262.9442,263.1435,263.4218,263.2014,263.5234,264.9285,263.3943,265.1432,265.1432,265.1866,265.1866,265.0476,265.0476,265.9861,265.9861,265.3737,265.3094,265.3094,265.4848,265.4848,265.6302,265.6302,264.6801,264.6801,267.4135,268.5096,268.2792,268.2792,268.1194,268.3695,268.3695,267.8485,267.8485,269.157,270.2849,269.2994,269.2994,268.5105,269.0554,269.0165,268.4203,270.5332,270.9735,270.9735,269.6198,271.0345,272.0934,271.6157,269.9286,271.3325,271.3325,271.2458,269.7114,269.7792,269.763,272.119,270.124,270.124,270.033,269.7755,269.6046,269.6484,269.9462,269.6601,269.6601,270.1795,271.881,271.7665,270.0181,270.498,269.4394,271.3385,271.3385,269.2767,268.3578,268.8829,269.28,269.28,269.3121,271.0527,271.1601,271.1601,270.5322,270.541,270.541,268.1649,268.1649,268.4009,266.2033,266.2033,263.6157,258.2629,242.7326,232.7685,218.1218,203.2708,192.9482,188.807,186.2271,189.0461,196.261,215.2883,233.7993,253.1077,268.9614,268.9614,269.0785,269.0785,267.5943,266.2745,266.2745,263.4844,265.9811,265.9811
269.6907,271.7941,274.3961,274.5141,272.9328,274.3791,274.3791,273.4945,273.4945,273.1969,273.1969,273.5641,273.5641,273.5641,273.4237,273.4237,273.4669,273.4669,275.4714,274.4766,272.2824,273.3044,273.3044,273.3044,272.7754,272.7754,274.7711,274.7415,274.2517,272.212,272.7059,274.2696,271.9639,270.3757,268.1179,271.3194,272.5729,272.5729,271.3081,270.7367,271.1333,273.74,273.8486,273.8486,271.4249,269.8424,268.8125,264.0423,264.6424,264.5089,260.6739,269.5309,271.65,271.5831,269.3699,271.2833,271.4752,272.2523,267.8663,268.8772,268.787,269.812,268.0467,261.8851,258.5954,260.1799,258.2959,251.3365,257.3298,257.1679,252.7004,247.2877,240.8896,229.4125,226.4301,223.6676,219.1438,211.8164,206.3593,202.8301,199.9778,198.0646,196.1727,194.8289,194.9868,193.3056,192.4545,191.069,190.3324,191.6019,192.9391,193.4167,195.2581,196.2882,198.5419,200.5716,203.888,207.6441,212.4606,218.9085,222.6189,227.7446,235.817,234.6853,241.1527,239.6987,235.2158,240.3285,241.4919,238.7949,230.5385,222.3105,217.23,216.0582,212.9492,208.4117,203.6538,199.5103,194.7931,190.4388,186.67,183.165,180.9925,178.6131,177.821,179.4635,177.5845,177.9659,179.8472,179.0563,183.5506,188.236,197.4609,209.7219,220.0667,226.2438,234.7389,248.0071,251.7053,254.9327,257.1393,261.6597,262.9477,263.464,263.3661,262.6198,264.8181,263.0745,262.7289,264.6611,264.6611,265.1866,265.1866,265.0476,265.0476,264.4296,264.4296,265.3737,265.3094,265.3094,265.4848,265.4848,265.6302,265.6302,266.0582,266.0582,267.3281,268.2214,268.2214,268.1194,268.1194,268.3695,268.3695,268.9578,268.9578,267.4361,267.4361,267.4361,267.4361,268.9049,269.2912,269.2983,269.7943,270.0765,270.0765,270.0765,270.8566,270.8566,271.713,271.713,271.713,271.8781,271.8781,271.1753,270.6964,270.3606,269.9516,269.9516,270.7042,270.7042,270.4178,270.7873,270.439,270.189,270.1258,270.1242,270.1242,270.3983,271.3083,271.5892,271.1526,271.0058,270.5523,271.3385,271.3385,269.2767,268.3578,268.8829,269.28,269.28,269.3121,271.0527,271.1601,271.1601,270.5322,270.541,270.541,268.1649,268.1649,268.4009,266.2033,266.2033,259.4386,251.9818,238.5148,218.6062,199.8424,189.9034,185.0917,183.8969,183.2129,186.5099,197.3016,215.4844,235.5815,247.0571,258.9069,266.0701,269.1367,269.1367,267.7178,267.7487,267.7487,267.7487,266.6648,266.6648
272.2042,272.1419,272.6387,275.1419,274.4471,274.2531,274.2531,272.5671,272.5671,272.4525,272.4525,272.8724,272.8724,272.8724,270.8615,270.8615,272.7579,272.7579,273.1879,274.404,272.7049,274.2841,274.1773,272.3172,272.4192,272.4192,274.5705,272.8127,274.2342,272.1644,272.6779,274.6141,273.5834,272.1485,269.1161,266.5068,270.8231,270.8231,269.7091,267.9721,269.6646,270.519,271.9103,271.9103,272.1157,271.7482,265.1653,259.3021,262.1012,255.4108,263.5829,265.2293,266.4655,267.7151,265.1891,266.3365,267.0697,266.6218,264.187,257.5659,257.4924,258.0791,257.1586,251.727,243.9588,246.6014,243.0781,236.704,237.815,236.0018,229.4625,223.6593,219.2717,211.9398,205.2518,200.336,196.174,193.5739,190.5054,189.437,188.0135,187.0158,187.0567,186.5375,185.373,185.3674,185.1206,183.3914,182.9907,183.3163,184.5245,184.2197,185.4967,186.2331,186.2808,188.1928,189.6119,190.8204,193.8406,196.6042,201.0022,206.3821,210.4513,213.3748,215.4671,214.703,214.4032,216.3388,216.9926,213.6853,208.7007,202.2735,197.5912,193.8521,192.6243,190.565,188.592,187.4082,185.2964,183.1074,180.3279,180.2605,178.4067,179.6799,179.731,179.9866,179.5009,181.5485,185.3381,189.0406,194.8876,206.1098,219.1634,230.8406,238.8731,237.0998,245.3903,245.7776,247.3002,248.6099,257.4155,259.4053,262.0548,263.1272,263.3018,263.3574,263.057,264.9983,265.9067,264.6611,264.6611,265.1866,265.1866,265.0476,265.0476,264.2535,264.2535,265.3737,265.3094,265.3094,265.4848,266.1459,265.6302,265.6302,264.8409,264.8409,267.3281,268.2214,268.2214,268.1194,268.1194,268.3695,268.3695,269.0979,269.0979,267.4361,267.4361,267.4361,267.4361,269.3201,268.1176,268.2354,269.7943,270.0765,270.0765,270.0765,270.8566,270.8566,271.713,271.713,271.713,272.0077,272.0077,271.1753,270.6964,270.3606,269.9516,269.9516,270.7042,270.7042,270.4178,270.7873,270.439,270.189,270.1258,270.1242,270.1242,270.3983,271.3083,271.5892,271.1526,271.0058,270.5523,270.516,270.516,269.3523,269.3523,269.0725,268.9767,268.9767,269.0177,269.0177,268.5827,268.5827,268.2126,268.2126,268.2126,268.0132,268.0132,266.0211,264.8327,264.8327,249.9584,243.9982,232.5833,211.1521,195.7995,186.81,183.8597,184.556,189.444,196.575,210.7381,226.7933,247.1616,257.8527,262.1535,264.9865,266.492,266.492,267.7178,267.7487,267.7487,267.7487,269.2118,269.2118
271.8952,272.7485,271.0276,273.4965,272.2818,272.0285,272.0285,272.5671,272.5671,272.4948,272.4879,272.8724,272.8724,272.8724,270.8615,270.8615,272.7579,272.7579,272.6968,272.2454,272.3132,272.5629,271.9668,272.3639,274.2844,274.2844,272.9321,274.3324,271.9696,272.7179,274.2476,274.4115,273.8667,269.2134,266.6754,263.1297,268.4637,268.4637,270.5193,270.7524,264.2393,266.6028,269.2594,269.2594,271.9046,271.3739,264.6943,252.1302,256.5688,257.0694,252.6179,262.0459,259.9532,255.506,259.916,259.0318,253.6202,252.5678,249.0826,244.4852,235.2255,237.6781,232.3515,228.7112,225.4132,221.229,217.8529,213.7813,210.6019,208.7015,206.6932,202.4589,197.349,194.4699,192.0399,189.498,187.5359,185.5608,184.6369,183.7886,183.3374,182.1704,183.3133,181.7015,180.4397,182.2127,182.7265,182.4168,182.1039,180.5726,180.922,181.2333,181.4223,182.8261,181.8898,183.5321,184.1252,183.698,185.6233,187.4948,187.7812,190.0785,192.4218,193.1705,193.5774,194.097,193.6355,194.5839,194.7322,194.0489,191.6127,189.2083,186.5618,183.6786,183.5785,183.202,183.69,181.6897,180.8269,178.8081,177.2342,180.3672,179.5981,180.0518,180.4464,184.1265,187.335,193.4252,199.896,209.4725,219.0509,227.0424,239.5724,246.9491,250.8414,251.7334,253.4458,255.2882,255.5884,256.6109,254.1456,258.3517,261.5087,263.0388,264.1868,263.2924,264.9522,265.5868,263.9622,264.6611,264.4709,264.3865,265.9568,264.2654,265.9106,266.1995,266.1995,264.769,264.3386,264.0416,265.0909,264.8849,267.2009,266.0227,265.0202,265.0202,266.3673,266.663,269.7797,268.2553,267.3764,269.0187,268.9587,267.0237,267.0237,267.4361,267.4361,267.4361,267.4361,269.1381,268.5969,269.2081,269.7943,269.7943,268.3784,268.2813,269.3244,269.3244,271.713,271.713,271.713,270.9477,270.9477,270.5551,270.4164,269.8881,269.9516,269.9516,270.217,270.217,269.5619,269.5389,269.5653,269.5687,269.6292,269.2947,269.2947,269.7404,269.7459,270.1722,270.6917,270.765,270.4649,269.7019,269.7019,269.3523,269.3523,269.0725,268.947,268.947,269.0177,269.0177,268.5827,268.5827,268.2126,268.2126,268.2126,268.0132,268.0132,267.4063,267.3037,267.3037,255.2668,248.7153,234.0636,219.0707,203.2179,197.1122,195.3333,196.9284,203.5463,216.2941,230.0536,245.1908,256.399,264.1255,266.5625,268.1979,268.2804,268.2804,267.7178,267.7487,267.7487,267.7487,266.9464,266.9464
270.4467,270.4467,272.183,270.1884,271.6113,270.6955,270.6955,271.2216,270.2329,270.2329,272.9558,272.9458,271.0751,271.0751,273.7624,270.6479,270.6963,272.1452,272.1452,273.2159,272.3437,272.5225,273.0225,270.5866,272.5672,272.5672,272.8506,274.008,272.1547,272.5628,272.0758,272.0215,273.2157,269.4467,259.3623,260.1338,260.894,263.5636,269.1052,269.1589,266.3502,257.0408,265.0208,266.7014,267.6109,266.8484,262.2246,256.3817,242.6308,240.8603,247.633,247.485,245.5914,238.6899,242.5532,239.8986,232.218,227.1159,224.8044,219.4829,215.1477,211.0196,208.3047,204.9111,200.348,197.9373,195.9123,193.7848,192.0801,191.2788,191.1205,189.4321,188.6416,186.5934,186.4739,184.4204,182.4044,182.8958,182.5352,180.8824,180.4723,180.447,182.1459,182.0329,179.1302,180.3691,180.6398,182.0089,179.7626,180.5065,180.7023,183.2734,180.8372,180.7325,182.4329,180.877,182.7362,182.8907,183.0705,181.9088,183.3902,184.064,185.0584,185.2196,185.3227,184.3267,184.5218,185.3857,184.6577,184.4752,183.9038,184.1563,181.7933,180.0757,182.1938,182.577,182.3931,180.1684,178.0851,179.4185,178.3212,179.3833,180.418,184.6392,189.4903,196.5419,204.3761,213.7887,223.5869,230.8735,242.368,247.5989,250.4043,255.5135,258.2668,259.1732,258.6898,260.2152,260.8531,258.7438,260.5803,258.0505,262.4634,261.398,261.5458,262.4534,264.9977,265.3093,263.6495,265.0241,264.4709,264.3865,265.9568,264.2654,265.9106,266.1995,266.1995,264.769,264.3386,264.0416,265.0909,264.8849,267.2009,266.0227,265.0202,265.0202,266.3673,266.663,269.7797,268.2553,267.3764,269.0187,268.9587,267.0237,267.0237,267.4361,267.4361,267.4361,267.4361,269.1381,268.5969,270.5763,269.7943,269.7943,270.1675,269.1292,269.3244,269.3244,269.3244,269.3244,269.3244,269.2403,269.2403,270.4515,270.4498,268.5165,269.4346,270.5846,268.1213,268.1213,269.1226,267.8656,269.1095,268.7507,267.6981,269.1375,269.1375,268.2879,268.9277,269.2151,268.9399,269.6795,269.314,267.9236,267.9236,269.3523,269.3523,269.0725,268.2386,268.2386,268.1821,268.1821,268.1376,268.1376,267.6414,267.6414,267.6414,267.5308,267.5308,266.8073,264.6733,264.6733,253.2449,248.6685,245.6735,232.059,226.3323,218.422,218.3965,221.9683,226.7314,231.3356,243.8237,253.411,261.6447,265.2467,265.289,266.2851,268.2804,268.2804,267.7178,267.7487,267.7487,267.7487,266.9464,266.9464
270.4467,270.4467,272.183,270.1884,271.6113,270.6955,270.6955,271.2216,270.2329,270.2329,272.9558,272.9458,271.0751,271.0751,273.7624,270.6479,270.6963,272.1452,272.1452,273.2159,272.3437,272.5225,273.0225,270.5866,272.5672,272.5672,272.0434,270.8259,273.7022,272.7056,271.9915,270.0692,273.027,270.9367,264.6697,251.9955,249.6131,260.3993,263.1884,267.2632,263.0086,260.464,251.3627,257.0564,256.0692,252.8787,248.9535,242.1942,233.7066,225.9889,222.5501,222.3487,220.9336,220.2485,217.4755,213.2314,208.1581,203.6618,200.5519,197.1553,195.1923,193.3524,192.7259,190.2413,187.9144,186.1346,185.1472,184.4873,185.2149,186.3745,184.8963,184.4818,183.9742,184.9508,183.1703,182.5477,180.6302,180.3884,180.4922,180.5372,180.6196,179.6509,181.3383,183.2406,182.6627,182.9464,184.7679,183.5897,185.5393,185.1881,183.7359,183.309,183.9699,183.7192,182.0538,181.6509,182.8459,182.8009,180.931,182.1479,179.7655,182.1356,182.4557,182.4588,181.2414,182.607,182.6,181.1061,181.1635,182.8041,182.8509,182.6786,182.3886,182.3269,180.8185,181.0021,181.2129,181.3631,180.4486,181.7707,184.5466,187.0713,191.7689,197.9677,207.6977,217.1784,225.9019,232.3672,242.5563,247.7701,254.5737,258.2541,260.0377,260.5581,261.2583,262.2073,261.9102,262.5245,262.257,260.5469,260.3361,261.8609,260.3208,263.3818,263.5487,265.7417,263.5981,263.2145,265.4498,265.0241,265.0241,265.6034,265.6034,265.7898,265.7898,267.2941,267.2941,265.0793,265.3528,265.3528,265.9217,265.9064,265.9788,265.9788,266.2039,266.2039,266.36,268.2214,267.0197,267.0197,268.1281,268.3244,268.3244,268.9158,268.9158,267.975,268.9425,267.4349,268.3678,268.3678,270.3482,269.0954,269.1459,267.9214,268.002,267.4424,269.3244,269.3244,269.3244,269.3244,269.3244,269.2403,269.2403,270.4515,270.4498,268.5165,269.4346,270.5846,268.1213,268.1213,269.1226,267.8656,269.1095,268.7507,267.6981,269.1375,269.1375,268.2879,268.9277,269.2151,268.9399,269.6795,269.314,267.9236,267.9236,268.4508,268.4508,268.5203,268.2054,268.2054,267.2971,267.1907,268.8405,266.9636,267.3659,267.1613,267.1613,268.6224,266.9033,265.3041,264.7386,264.7386,262.3198,259.9173,254.5973,249.9865,246.0068,238.5401,237.8313,243.1638,245.5704,241.1356,242.8486,254.8,258.8286,260.3718,267.0833,267.39,266.2186,266.2186,267.2514,267.9942,267.9942,267.9942,267.1298,267.1298
269.1899,269.1899,269.1957,271.3421,270.0595,270.0852,270.0852,270.0869,269.7309,269.7309,270.3381,270.0057,271.6862,270.6706,270.2877,272.5532,272.995,272.3094,272.3094,271.9164,271.6675,272.683,272.7948,272.7948,272.7948,268.9408,267.8348,271.1148,271.2399,270.6842,266.4119,268.8236,268.5689,269.3531,265.212,260.9138,257.7341,246.5445,256.9654,255.9494,253.8358,247.5486,244.6366,235.6944,231.6958,228.1579,223.3556,216.1349,210.9536,204.8574,201.1718,200.5914,200.1994,198.1956,195.3755,194.4946,191.4508,189.0324,187.3391,187.351,186.4364,186.9269,184.7433,186.1249,184.0418,183.1229,181.2264,181.73,184.5926,183.304,184.4494,184.211,181.6212,183.0169,183.0533,181.6652,183.133,183.4749,183.1696,184.2839,184.8358,185.9067,187.3012,190.4921,193.1505,195.0668,195.8623,199.5362,199.9101,198.2989,196.5158,194.2423,192.16,190.0123,189.1284,186.97,185.956,184.6822,183.5845,181.5571,181.0335,182.1648,179.8428,180.7093,182.5083,180.709,180.6032,182.5036,182.6292,182.7745,182.6464,180.9495,181.3158,183.3997,183.9427,185.1047,186.8658,188.9575,192.0846,195.0965,199.6116,205.9725,212.1363,217.2162,224.426,237.6434,238.0846,247.7561,252.5941,258.2003,259.6037,262.2703,264.1295,264.1991,262.4943,263.4529,262.2009,262.9435,260.841,260.841,261.2808,263.6943,263.6291,261.11,264.5049,266.4446,266.0979,263.6469,265.7331,265.0241,265.0241,265.6034,265.6034,265.7898,265.7898,264.737,264.737,265.0793,265.3528,265.3528,265.9064,265.9064,265.9788,265.9788,266.3055,266.3055,266.36,268.2214,267.0197,267.0197,268.1281,268.3244,268.3244,268.8569,268.8569,268.1109,268.8049,266.8307,268.3678,268.3678,267.762,267.762,268.1987,268.1987,268.1987,268.2946,269.3244,269.3244,269.3244,269.3244,269.3244,268.9564,268.9564,268.822,269.3966,269.0275,268.9505,269.1079,269.0333,269.0333,268.9396,268.441,268.4236,268.6195,268.5446,268.4816,268.4816,268.6115,268.3758,268.3704,268.8893,269.2969,269.2616,269.008,269.008,268.4508,268.4508,268.5203,268.2054,268.2054,267.2971,267.1907,268.8405,266.9636,267.3659,267.1613,267.1613,268.6224,266.9033,265.3041,264.7386,264.7386,262.3198,265.4804,263.4317,260.7208,258.9403,255.3586,252.5667,256.7334,255.2274,248.0018,254.1018,249.1927,251.6212,262.5065,262.2203,266.6554,266.1774,266.1774,267.2514,267.9942,267.9942,267.9942,269.7648,269.7648
271.6132,271.6132,269.8354,271.4139,271.871,271.8455,271.8455,270.5717,269.7943,269.7943,270.943,270.9156,270.9156,271.025,271.025,270.3109,270.3109,271.5335,271.5335,271.936,271.6675,271.6675,265.9896,265.9896,265.9896,260.9954,268.585,271.175,268.0877,268.4348,267.1614,259.0959,262.5457,262.1014,259.5375,254.8734,250.2004,245.7056,235.6655,237.2708,229.7136,223.5146,220.2527,214.5695,207.6578,202.7669,198.3062,196.131,193.106,191.7421,189.6641,188.8905,189.1311,187.7844,187.7254,185.1381,185.1932,183.2172,183.7482,183.6194,183.578,183.5823,185.2239,184.9606,183.1909,182.8098,182.6719,182.89,184.3869,182.1768,182.6979,183.2283,183.9836,185.9477,188.868,192.0813,195.5139,195.8455,195.2648,194.3656,196.354,200.0201,202.9584,208.892,214.4042,218.3716,221.6262,225.3635,226.5123,225.3583,221.3239,215.9882,209.5146,204.9114,201.8415,200.105,196.6188,194.8906,191.4505,188.2996,187.8247,185.5531,184.1251,184.299,183.941,183.4835,182.0006,183.2703,181.8506,183.1574,182.0345,183.991,185.9263,188.6719,192.1315,195.3221,200.6666,206.1528,214.1915,220.9421,224.9932,231.5624,237.0736,231.5707,243.5016,247.744,252.2445,247.9465,256.3907,259.3761,263.7466,264.9083,265.0351,262.6328,263.7695,265.0818,263.542,263.3374,261.1344,261.1344,263.6913,263.3572,262.9425,261.5726,264.2641,263.8026,263.8365,265.4037,265.638,265.638,265.0241,265.6511,265.6034,265.7898,265.7898,266.1027,266.1027,265.0793,265.0793,265.3528,265.9064,265.9064,265.9788,265.9788,266.3522,266.3522,266.36,268.2214,267.3174,268.1281,268.1281,268.3244,268.3244,267.1334,267.1334,267.1334,268.6546,268.3269,267.3637,267.5266,267.762,267.762,268.1987,268.1987,268.1987,268.2946,268.2946,268.2946,268.2931,268.2931,268.2931,267.0157,267.0157,268.822,269.3966,269.0275,268.917,269.0784,269.0333,269.0333,268.9396,268.441,268.4236,268.6195,268.5446,268.4816,268.4816,268.6115,268.3758,268.3704,268.8893,269.2969,269.2616,269.1669,269.1669,267.3571,267.8135,267.9349,268.9647,268.9647,268.001,268.001,267.4504,267.4504,267.5919,267.5919,267.5919,267.0501,267.0501,267.3386,266.9686,266.9686,268.1323,268.1323,268.1323,268.1323,268.1323,263.6363,263.1064,261.3056,262.3759,260.5145,256.2871,259.5732,260.034,258.8848,265.0479,263.7666,264.748,264.748,267.2514,267.9942,267.9942,267.9942,267.4495,267.4495
271.6132,271.6132,269.8354,271.4139,271.871,271.8455,271.8455,270.5406,271.3067,271.3067,270.5497,271.0749,271.0749,270.5824,270.5824,270.3109,270.3109,269.1634,269.1634,270.1632,270.0438,270.0438,265.9896,265.9896,265.9896,260.8907,264.4379,269.411,266.5309,260.942,261.0015,256.7103,245.0841,249.3306,243.1656,234.5026,229.9221,224.8253,219.2584,211.1508,205.3197,200.401,197.8359,194.9348,192.1924,188.7359,187.481,186.2965,185.9936,185.3698,186.0426,184.4628,184.1872,184.2358,185.3318,183.6407,185.1753,185.0637,183.3245,185.0492,183.2533,183.222,183.4969,183.8853,183.1299,184.3092,183.0912,184.7291,184.4567,187.2514,189.9922,193.3835,195.6396,200.3358,207.3166,214.3178,219.3943,221.4941,217.8069,216.3994,219.5567,225.4135,227.5196,232.686,240.3956,241.0195,244.5523,248.9697,249.1756,248.5058,246.6946,238.489,228.094,224.5902,224.3923,221.5286,220.3344,215.2706,210.9507,205.9888,201.8108,199.3407,197.2446,194.9666,192.6974,191.5686,191.0557,190.5857,190.1293,189.3551,190.3194,193.0135,197.0631,203.4772,209.9909,216.9383,223.2781,228.3088,233.0085,242.2893,247.4322,251.6661,252.3552,251.7552,245.2996,256.4395,256.9932,257.4896,250.9047,260.0443,262.9095,265.5181,263.5283,263.823,265.4423,265.9592,266.8349,264.7274,261.1344,261.1344,263.6913,263.3572,262.9425,261.5726,264.2641,263.8026,263.8365,265.4037,265.638,265.638,265.0241,265.6511,265.6034,265.7898,265.7898,266.1027,266.1027,265.0793,265.0793,265.3528,265.9064,265.9064,265.9788,265.9788,266.3522,266.3522,266.36,268.2214,267.3174,268.1281,268.1281,268.3244,268.3244,267.1334,267.1334,267.1334,267.5651,267.8301,267.3637,267.5266,267.762,267.762,268.1987,268.1987,268.1987,268.2946,268.2946,268.2946,268.2931,268.2931,268.2931,268.7205,268.7205,267.9951,268.3238,268.4973,268.3626,268.4725,268.3191,268.3191,268.5697,269.171,269.0644,268.2852,268.1345,268.1579,268.1579,268.2116,268.5368,268.3921,268.4789,268.8329,269.1529,269.1669,269.1669,267.3571,267.8135,267.9349,268.9647,268.9647,268.001,268.001,267.4504,267.4504,267.5919,267.5919,267.5919,267.0501,267.0501,267.3386,265.9623,265.9623,268.1323,268.1323,268.1323,268.1323,268.1323,267.8334,265.7714,265.6803,265.3627,263.2791,263.4034,263.7432,265.1154,265.6805,266.6177,265.9885,265.6733,265.6733,267.3927,267.3927,267.4435,266.6134,266.3296,266.3296
271.6579,271.6579,270.7393,269.5294,271.4992,270.0753,270.0753,270.5406,269.6546,269.6546,269.6235,271.4073,271.7101,271.6031,269.4999,269.9261,269.4894,269.6381,269.6381,270.3251,268.7314,270.9297,270.9556,264.1514,261.0237,248.5736,258.9909,259.4084,257.9048,252.8673,242.9091,243.4702,236.3288,223.0889,218.5817,212.3716,206.5242,201.7068,197.605,193.8661,190.8557,188.9999,187.6058,187.5912,185.4606,185.5349,182.5609,182.2784,184.6798,185.038,183.5281,183.2215,183.188,185.0246,183.2129,183.2982,185.0466,183.3755,183.3408,183.5781,184.3187,186.5426,186.8595,190.1393,192.5046,193.8957,194.1143,195.5466,198.2753,201.3172,207.9444,214.7207,219.9978,226.6494,232.5177,240.5531,245.0969,244.8963,243.3344,237.5126,244.6265,244.6759,250.2576,252.991,257.1944,257.8638,259.9174,260.5876,262.2251,261.3997,257.3942,251.4011,242.9727,247.825,247.3546,246.6536,244.2176,235.607,232.6076,228.3066,223.0167,220.1917,223.2154,216.8362,214.1338,211.2609,211.3015,211.3359,208.355,207.9282,208.7114,214.9178,222.564,226.1466,233.7555,239.5498,236.7306,244.7536,248.5213,246.6166,256.495,259.514,261.1273,256.0356,258.848,260.282,262.3173,258.4023,257.4097,253.6428,263.4569,263.8872,265.5753,266.6903,266.1315,265.0203,267.3989,265.4798,266.3001,266.3001,265.0605,265.2281,263.64,262.3054,264.7362,265.5957,266.0792,266.4234,263.8846,263.8846,265.1488,265.6308,265.6308,265.3461,264.5561,265.7312,266.152,267.1134,267.1134,265.5868,265.5868,266.1474,266.1502,266.368,266.368,266.368,266.222,266.25,266.239,266.2838,265.5345,265.875,267.4781,268.2393,266.5911,266.5911,269.0331,266.9321,268.3664,266.5419,266.626,266.7249,266.7249,268.7142,267.2233,267.225,268.8874,268.8874,266.9951,266.9397,269.3518,268.6382,268.6382,267.4441,267.2872,268.9118,267.748,267.7471,267.5827,267.5827,268.3432,270.3247,268.9079,267.1684,267.0207,267.5012,267.5012,268.8992,267.9731,268.0006,269.3033,267.7128,269.0923,268.8161,268.8161,268.5083,268.5083,268.445,268.7992,268.7992,268.6697,268.6697,267.9203,267.9203,267.4557,267.4557,267.4557,266.765,266.765,267.3386,268.3108,268.3108,268.1323,268.1323,268.1323,268.1323,268.1323,269.2075,268.0979,266.5293,267.69,266.1106,267.2498,266.5584,268.0308,268.8696,269.4614,266.8609,268.1737,268.1737,267.3927,267.7526,267.4435,266.6134,268.1925,268.1925
