267.9395,265.1779,267.3742,267.7432,265.1966,266.3954,269.5552,268.2089,268.1744,270.1503,270.5475,270.7592,269.5466,271.7286,270.1604,269.6393,269.6512,271.8688,272.9667,270.5512,270.0233,271.8907,272.3376,272.4367,274.2279,272.6243,272.1876,272.411,272.4896,272.5016,272.2297,275.1856,319.5849,332.4961,341.1355,380.1282,431.3354,574.4028,761.183,976.9221,1216.716,1444.691,1672.783,2017.1,2485,2485,2498.447,2500,2500,2500,2500,2500,2500,2500,2500,2500,2500,2500,2500,2500,2500,2500,2500,2500,2500,2500,2500,2500,2500,2500,2500,2500,2500,2500,2500,2500,2500,2500,2500,2500,2500,2500,2500,2500,2500,2292.789,1649.857,1174.571,897.1281,745.797,625.9784,567.9377,452.3253,417.7095,373.926,330.2256,301.5612,291.2288,281.7904,275.383,275.5899,275.4655,275.5176,275.4807,275.6221,277.2214,275.3977,275.6156,275.7645,275.6038,277.3971,275.7678,275.7961,275.7465,275.3827,275.5508,277.5206,277.7105,277.7733,282.2918,282.2918,282.2918,282.2918,282.2918,282.2918,282.2918,282.2918,282.2918
266.8967,268.7672,265.6483,265.9805,268.0026,266.9603,269.6856,268.1397,270.3065,269.2559,269.1246,268.4386,270.9318,271.2341,271.3745,269.2541,269.7865,271.8409,270.5542,270.9157,270.4271,270.3443,273.3677,274.0071,272.4102,274.2694,274.2867,274.3346,272.601,272.228,272.5372,319.0845,337.3998,348.2344,375.2435,417.7304,505.707,658.4335,813.0142,979.7042,1155.933,1355.597,1571.294,1941.536,2486.574,2486.574,2497.778,2500,2500,2500,2500,2500,2500,2500,2500,2500,2500,2500,2500,2500,2500,2500,2500,2500,2500,2500,2500,2500,2500,2500,2500,2500,2500,2500,2500,2500,2500,2500,2500,2500,2500,2500,2500,2500,2500,2192.526,1562.606,1164.344,921.995,749.9157,653.8974,582.1741,479.5665,437.3727,391.8384,343.3232,305.0455,285.1797,279.8232,276.2907,275.5348,275.3819,275.0312,275.4538,275.7722,275.8297,274.9323,273.8661,274.9689,275.6516,275.8554,275.9529,276.0545,275.4955,275.7637,277.3918,275.6487,275.9059,278.999,282.2918,282.2918,282.2918,282.2918,282.2918,282.2918,282.2918,282.2918,282.2918
266.4836,267.0925,268.2538,268.3209,269.3503,266.8723,268.7806,269.1372,268.2467,267.7719,267.3387,269.4926,271.095,269.2727,271.093,269.4245,271.416,272.0314,271.9961,270.7114,270.6986,270.972,271.1205,272.2769,272.3759,272.6189,274.0072,274.3581,274.5228,273.1144,292.5623,330.3581,345.4483,373.9473,406.2135,479.9681,623.7952,768.4891,928.4336,1051.155,1167.423,1337.247,1589.856,1889.343,2486.574,2486.574,2497.778,2500,2500,2500,2500,2500,2500,2500,2500,2500,2500,2500,2500,2500,2500,2500,2500,2500,2500,2500,2500,2500,2500,2500,2500,2500,2500,2500,2500,2500,2500,2500,2500,2500,2500,2500,2500,2500,2500,2089.29,1499.409,1156.347,898.9645,778.3328,684.0256,603.0604,491.7723,458.6848,405.0984,353.5305,308.686,283.0193,276.9622,276.1058,275.8241,275.2631,274.9571,275.7496,274.85,275.4924,275.5366,275.4716,275.5503,275.6389,277.6069,276.0956,275.998,278.2873,276.0904,277.6127,277.5507,276.0796,277.9649,282.2918,282.2918,282.2918,282.2918,282.2918,282.2918,282.2918,282.2918,282.2918
265.7491,268.2815,269.4708,267.4215,268.769,266.8967,268.7751,267.5859,269.1412,268.4714,267.8606,269.5654,271.8881,271.2476,271.2486,269.6736,271.6756,270.4028,270.1674,270.3926,272.059,271.9462,273.0215,272.2894,271.7256,271.7739,271.6525,272.3413,274.6198,276.6814,312.9811,332.2753,352.2881,381.4778,456.5279,606.9276,757.8924,913.8508,1026.704,1117.75,1224.534,1419.179,1686.898,1932.198,2485,2485,2500,2500,2500,2500,2500,2500,2500,2500,2500,2500,2500,2500,2500,2500,2500,2500,2500,2500,2500,2500,2500,2500,2500,2500,2500,2500,2500,2500,2500,2500,2500,2500,2500,2500,2500,2500,2500,2500,2500,2035.861,1455.55,1109.967,920.7189,791.8807,700.7943,542.6865,500.7173,467.8546,417.5623,362.5556,313.2652,283.7575,276.6034,276.258,277.9439,275.8728,275.4937,277.2907,277.186,275.5081,276.9784,277.55,276.5273,275.8229,276.3734,275.8848,277.6242,278.0301,279.1685,276.3472,276.2272,277.7383,278.2159,282.2918,282.2918,282.2918,282.2918,282.2918,282.2918,282.2918,282.2918,282.2918
268.5464,266.2985,266.8863,269.7487,268.8618,267.1354,268.813,269.0676,268.2173,270.3911,269.2623,267.9639,269.3057,270.6953,269.4187,272.4044,271.6002,271.9381,271.9847,270.8627,272.8604,270.2253,270.3667,273.5975,272.3598,272.4655,272.2134,274.0044,272.929,284.8119,326.7561,340.6505,372.548,408.4401,488.032,677.5054,856.0228,1006.166,1131.089,1250.024,1380.277,1568.505,1759.957,1990.358,2485,2485,2500,2500,2500,2500,2500,2500,2500,2500,2500,2500,2500,2500,2500,2500,2500,2500,2500,2500,2500,2500,2500,2500,2500,2500,2500,2500,2500,2500,2500,2500,2500,2500,2500,2500,2500,2500,2500,2500,2500,1887.53,1461.214,1161.584,958.1732,800.9359,661.3383,543.4222,512.524,466.7102,423.1634,362.8503,313.0927,284.9417,275.9726,275.7757,276.0959,276.0555,277.3886,276.2047,275.7143,275.7863,277.5872,276.2337,276.5526,278.6815,277.8348,276.0472,276.3919,278.0478,278.266,278.2808,279.4881,278.5096,278.5146,282.2918,282.2918,282.2918,282.2918,282.2918,282.2918,282.2918,282.2918,282.2918
266.7412,266.6506,267.0163,269.3454,267.4116,269.0906,267.127,268.9092,268.2084,269.3025,267.8633,269.0372,267.5844,268.2585,269.7924,271.1271,269.7755,271.653,270.3351,271.9716,271.5008,269.6695,271.5298,271.8439,272.5843,272.4496,271.5028,274.0363,272.5613,312.986,328.2218,349.4295,385.2733,467.1694,634.6029,792.402,987.9791,1131.865,1246.255,1366.191,1515.275,1701.896,1874.083,2086.245,2485,2485,2500,2500,2500,2500,2500,2500,2500,2500,2500,2500,2500,2500,2500,2500,2500,2500,2500,2500,2500,2500,2500,2500,2500,2500,2500,2500,2500,2500,2500,2500,2500,2500,2500,2500,2500,2500,2500,2500,2448.997,1887.703,1508.036,1198.214,964.8254,819.3674,683.9639,548.0549,513.4851,480.287,407.5023,353.3409,308.3499,284.3337,277.4962,277.3488,275.7959,278.2536,275.9093,275.1632,275.8407,277.8306,276.8777,278.6402,276.5956,278.9529,276.5246,276.4577,278.6287,278.998,279.3828,278.6517,281.0905,279.4451,280.0959,282.2918,282.2918,282.2918,282.2918,282.2918,282.2918,282.2918,282.2918,282.2918
266.5317,267.7516,266.3268,268.1953,266.3293,266.3323,266.8129,268.9,268.268,269.2646,269.0248,267.9331,270.4373,269.476,269.4609,268.4746,270.9492,271.3196,271.3972,271.4313,269.6251,269.476,269.9043,271.6785,272.1315,274.0372,272.3947,272.3253,275.1906,313.7256,343.9996,370.03,421.7757,509.3352,724.9941,929.52,1136.294,1277.412,1410.363,1529.58,1697.435,1869.293,2017.92,2232.833,2486.574,2486.574,2497.778,2500,2500,2500,2500,2500,2500,2500,2500,2500,2500,2500,2500,2500,2500,2500,2500,2500,2500,2500,2500,2500,2500,2500,2500,2500,2500,2500,2500,2500,2500,2500,2500,2500,2500,2500,2500,2500,2250.657,1870.002,1558.03,1303.633,1053.178,829.3212,636.202,575.3012,514.916,470.7974,410.6822,346.2289,307.5162,286.8448,278.1567,275.7614,275.6361,277.6003,277.5428,275.7115,275.8791,279.0196,279.8981,276.7096,277.9281,277.7505,275.9612,276.503,276.7504,276.5643,276.3261,278.4788,280.4447,278.9617,277.4766,282.2918,282.2918,282.2918,282.2918,282.2918,282.2918,282.2918,282.2918,282.2918
266.6356,264.1854,265.6302,267.1035,265.745,268.0069,268.7473,269.243,270.3931,268.3056,267.3463,269.0766,270.7743,270.8872,268.9132,269.2228,269.0346,269.1583,269.3313,269.3675,271.3227,269.7765,269.4995,269.9751,272.9294,272.0048,272.2796,271.102,313.7647,326.1411,352.2459,384.297,451.1836,650.1954,846.0117,1055.439,1250.551,1399.045,1550.734,1744.66,1871.878,2029.912,2192.091,2375.581,2486.574,2486.574,2497.778,2500,2500,2500,2500,2500,2500,2500,2500,2500,2500,2500,2500,2500,2500,2500,2500,2500,2500,2500,2500,2500,2500,2500,2500,2500,2500,2500,2500,2500,2500,2500,2500,2500,2500,2500,2500,2500,2208.573,1863.735,1590.015,1367.571,1143.75,914.7133,686.4937,591.2889,524.6673,471.4818,438.3484,354.4241,319.4547,290.6025,283.4338,275.8095,277.3773,275.8838,277.8611,277.8407,277.733,278.2159,276.5672,277.9644,277.8934,275.9736,277.7537,278.045,278.9941,277.804,275.9521,278.2749,281.1753,279.1599,278.5241,282.2918,282.2918,282.2918,282.2918,282.2918,282.2918,282.2918,282.2918,282.2918
261.9787,263.1213,263.6653,264.28,265.2872,268.1939,267.7929,270.5229,267.7943,268.9257,267.8428,267.6421,269.2245,269.1441,267.4708,267.8777,269.5045,271.2007,271.4179,271.3951,269.6075,269.5209,269.3539,271.4162,270.2887,270.7025,271.6953,271.5711,315.5416,335.2827,363.4117,423.2476,500.7831,689.4845,925.1687,1156.91,1374.895,1542.901,1689.378,1839.969,1988.179,2160.746,2386.176,2500,2500,2500,2500,2500,2500,2500,2500,2500,2500,2500,2500,2500,2500,2500,2500,2500,2500,2500,2500,2500,2500,2500,2500,2500,2500,2500,2500,2500,2500,2500,2500,2500,2500,2500,2500,2500,2500,2500,2500,2500,2149.192,1909.867,1698.274,1488.512,1262.07,967.2741,775.2255,637.0048,546.8776,484.9834,447.5291,418.0571,331.9322,304.9866,289.56,275.9768,277.9979,277.8298,277.1574,280.0682,279.5417,280.0117,276.2165,277.7125,278.0995,277.8905,276.6638,276.7374,279.0996,276.5809,277.989,278.1579,280.0388,281.1697,280.2802,282.2918,282.2918,282.2918,282.2918,282.2918,282.2918,282.2918,282.2918,282.2918
267.5413,266.6046,265.7119,266.2339,266.4242,268.4328,269.1808,270.025,268.8264,267.4205,270.2729,269.154,269.1785,267.7853,269.1308,270.3348,269.2125,269.526,271.2493,269.7252,271.3357,269.7997,269.5043,269.6242,270.225,273.4228,273.7067,272.8031,319.0552,332.5603,389.4864,443.2383,535.5526,755.8,1020.595,1216.359,1413.821,1604.439,1794.532,1952.237,2125.164,2272.795,2456.626,2500,2500,2500,2500,2500,2500,2500,2500,2500,2500,2500,2500,2500,2500,2500,2500,2500,2500,2500,2500,2500,2500,2500,2500,2500,2500,2500,2500,2500,2500,2500,2500,2500,2500,2500,2500,2500,2500,2500,2500,2500,2162.847,1957.582,1770.65,1596.559,1380.633,1087.814,900.6328,735.4996,595.5366,518.4819,468.2639,427.589,356.9364,328.1867,299.5469,280.9727,278.3384,279.0378,280.6208,280.2131,282.4983,280.4671,278.8853,276.2358,277.866,276.4847,278.147,276.8582,276.4606,278.0571,278.59,280.1128,278.1983,278.6781,278.7651,282.2918,282.2918,282.2918,282.2918,282.2918,282.2918,282.2918,282.2918,282.2918
269.9055,266.3666,268.0097,268.6259,266.8261,268.3828,269.6562,267.6468,267.34,268.8971,269.3752,269.2351,268.0188,270.1235,267.9642,268.6855,268.2947,268.9418,269.1049,269.0792,269.5516,271.4969,269.732,269.7265,270.1794,271.0211,273.4894,274.6129,321.5371,350.7535,397.7308,458.5409,584.8994,849.7767,1044.063,1241.856,1429.385,1662.934,1834.084,1973.041,2173.316,2405.383,2500,2500,2500,2500,2500,2500,2500,2500,2500,2500,2500,2500,2500,2500,2500,2500,2500,2500,2500,2500,2500,2500,2500,2500,2500,2500,2500,2500,2500,2500,2500,2500,2500,2500,2500,2500,2500,2500,2500,2500,2500,2500,2210.22,2039.801,1872.661,1679.417,1433.427,1259.648,1081.044,884.7732,656.8446,541.4577,480.8098,439.622,426.1789,355.595,319.5988,286.3686,285.5789,282.896,281.7196,283.4387,283.0725,283.7484,280.5872,278.6093,276.7477,277.3604,277.0824,277.6,276.4029,278.1964,280.0675,280.4425,278.8324,278.6146,280.3955,282.2918,282.2918,282.2918,282.2918,282.2918,282.2918,282.2918,282.2918,282.2918
267.0955,266.7065,267.7029,265.5882,266.0365,266.3052,266.4906,268.617,270.041,269.2848,270.5847,269.2541,268.293,268.4316,267.7627,269.2041,270.6877,269.2782,269.4755,271.1728,269.5862,271.6219,271.771,270.2168,270.2048,270.1937,271.6216,277.9193,334.7866,348.319,404.1392,473.5342,673.8392,872.9168,1069.419,1304.604,1493.329,1688.239,1845.832,2009.756,2219.522,2418.41,2500,2500,2500,2500,2500,2500,2500,2500,2500,2500,2500,2500,2500,2500,2500,2500,2500,2500,2500,2500,2500,2500,2500,2500,2500,2500,2500,2500,2500,2500,2500,2500,2500,2500,2500,2500,2500,2500,2500,2500,2500,2500,2327.118,2172.41,1992.094,1746.346,1549.885,1378.619,1198.794,970.492,765.4123,605.6273,525.1241,471.5453,451.1767,392.2023,347.3616,301.8776,292.5869,288.1609,286.6005,286.3538,284.3164,282.7165,281.9295,279.6458,280.5626,278.4287,276.7675,278.2415,279.4965,278.3287,277.9913,280.3002,281.7401,279.0684,278.5378,282.2918,282.2918,282.2918,282.2918,282.2918,282.2918,282.2918,282.2918,282.2918
265.9127,266.6471,264.5996,267.0883,265.8038,268.0145,266.4182,268.3941,267.1406,268.8201,267.6989,267.8397,269.1588,269.2185,268.4499,267.7535,270.8421,269.7175,271.2281,269.7198,271.6069,270.2426,272.05,272.8865,270.35,269.892,270.1479,286.5098,325.5283,338.2949,374.549,496.9925,689.2596,887.0305,1092.269,1354.999,1517.683,1694.278,1843.378,2016.265,2174.85,2390.584,2500,2500,2500,2500,2500,2500,2500,2500,2500,2500,2500,2500,2500,2500,2500,2500,2500,2500,2500,2500,2500,2500,2500,2500,2500,2500,2500,2500,2500,2500,2500,2500,2500,2500,2500,2500,2500,2500,2500,2500,2500,2500,2408.771,2248.825,2026.5,1815.384,1676.396,1537.575,1345.071,1152.632,914.8559,674.2935,546.634,500.0388,475.0539,454.4799,382.0219,329.6209,308.091,298.0044,295.7245,294.4252,288.2481,286.0043,283.6765,280.2584,278.9734,278.1594,276.537,277.049,279.5905,277.8358,277.9543,280.1685,281.235,280.5221,278.3672,282.2918,282.2918,282.2918,282.2918,282.2918,282.2918,282.2918,282.2918,282.2918
262.985,265.6054,263.7777,266.6674,266.1552,268.2594,268.3005,266.6736,268.5198,267.0198,268.966,269.1589,268.0772,268.1382,268.0736,268.9236,269.2002,271.2435,269.3415,271.321,271.7393,271.9528,273.0313,271.8383,270.3079,271.7782,271.2159,295.6794,315.9729,325.4487,364.2437,478.4822,676.294,884.5329,1125.771,1339.478,1509.584,1664.751,1810.869,1932.164,2101.232,2350.003,2500,2500,2500,2500,2500,2500,2500,2500,2500,2500,2500,2500,2500,2500,2500,2500,2500,2500,2500,2500,2500,2500,2500,2500,2500,2500,2500,2500,2500,2500,2500,2500,2500,2500,2500,2500,2500,2500,2500,2500,2500,2500,2500,2331.196,2141.284,1965.051,1818.305,1665.599,1476.009,1244.998,977.7463,735.9564,589.8912,526.2709,486.4726,456.8586,396.8578,360.2956,326.2498,310.4624,303.0872,297.0894,291.6159,284.2093,283.4684,278.8544,277.4569,276.5118,279.2375,278.2874,277.0648,278.4321,280.0217,280.7149,281.412,280.6772,278.6603,282.2918,282.2918,282.2918,282.2918,282.2918,282.2918,282.2918,282.2918,282.2918
267.087,263.0513,263.5721,266.9691,268.5518,266.5822,266.388,266.4338,266.8338,268.8113,269.1553,269.05,267.8352,268.1782,268.7231,267.0191,268.9927,271.1597,269.696,269.4875,269.8826,271.7177,270.1339,269.9837,271.7183,270.6436,273.5437,300.2108,311.5405,318.4255,344.0794,422.5655,654.9859,876.4596,1101.06,1297.71,1451.37,1606.121,1724.106,1852.053,2002.954,2248.815,2500,2500,2500,2500,2500,2500,2500,2500,2500,2500,2500,2500,2500,2500,2500,2500,2500,2500,2500,2500,2500,2500,2500,2500,2500,2500,2500,2500,2500,2500,2500,2500,2500,2500,2500,2500,2500,2500,2500,2500,2500,2500,2500,2394.216,2255.021,2042.565,1868.877,1712.04,1561.293,1334.7,1089.986,807.9027,622.8432,529.5452,480.3163,445.5934,392.5336,365.3236,337.0905,318.0468,303.7093,297.3445,289.143,282.604,282.2595,280.2751,278.9689,277.1165,278.3118,279.6167,277.1031,278.2704,280.5886,279.7521,281.2606,281.1214,280.3042,282.2918,282.2918,282.2918,282.2918,282.2918,282.2918,282.2918,282.2918,282.2918
265.6377,264.2491,265.8768,267.4684,268.8217,268.4632,266.5043,266.6029,268.6021,268.9238,269.0388,267.8616,270.0704,267.4026,266.7975,268.705,269.184,269.177,269.2449,268.9881,271.4473,271.5122,269.4009,269.6033,271.6288,271.8969,274.6981,295.209,313.3681,318.871,333.8582,402.4388,653.265,882.4908,1091.854,1265.754,1400.195,1542.767,1642,1768.046,1953.885,2206.566,2471.323,2500,2500,2500,2500,2500,2500,2500,2500,2500,2500,2500,2500,2500,2500,2500,2500,2500,2500,2500,2500,2500,2500,2500,2500,2500,2500,2500,2500,2500,2500,2500,2500,2500,2500,2500,2500,2500,2500,2500,2500,2500,2499.452,2432.705,2275.451,2117.71,1948.672,1798.755,1611.259,1384.401,1100.24,843.0792,668.3884,526.4428,458.2733,422.182,405.6725,349.3264,331.0258,312.0047,298.3452,289.1205,285.4444,281.6552,280.414,279.3775,278.7369,278.5816,278.7731,278.8552,279.9449,280.2686,280.9745,281.2571,282.8102,281.4269,282.979,282.2918,282.2918,282.2918,282.2918,282.2918,282.2918,282.2918,282.2918,282.2918
265.8302,262.2113,264.4408,267.4631,267.1079,266.9409,268.3207,266.6477,268.4879,267.0122,268.8288,268.9185,269.0763,267.9138,267.1407,268.87,267.6892,271.2628,269.3388,269.4134,271.142,269.5812,269.6792,269.8422,269.9688,271.2916,279.2654,298.6976,317.198,324.3395,341.2726,409.2437,664.9838,872.7222,1064.134,1229.221,1359.904,1478.012,1605.172,1732.122,1911.405,2136.966,2364.063,2500,2500,2500,2500,2500,2500,2500,2500,2500,2500,2500,2500,2500,2500,2500,2500,2500,2500,2500,2500,2500,2500,2500,2500,2500,2500,2500,2500,2500,2500,2500,2500,2500,2500,2500,2500,2500,2500,2500,2500,2500,2500,2468.675,2353.609,2182.368,1987.958,1795.706,1623.737,1402.516,1128.903,864.8475,663.3181,537.0563,443.3457,394.8419,375.0585,322.9666,315.3401,300.6689,291.4549,284.5371,280.5517,278.1521,277.8614,279.1377,280.0994,278.4711,280.5384,281.8389,281.1371,280.9174,281.1068,281.7357,280.9977,281.3755,283.2094,282.2918,282.2918,282.2918,282.2918,282.2918,282.2918,282.2918,282.2918,282.2918
258.1902,263.6141,263.8223,267.5754,269.3757,268.4466,266.4714,266.5294,266.5122,266.8557,266.9677,267.0843,267.2969,267.3775,268.9981,267.7916,268.1509,270.635,269.5948,269.0385,269.1704,271.1671,271.5878,273.8772,273.6394,274.1406,282.5733,301.713,319.1975,331.6728,344.3835,410.1004,601.6431,841.4347,1004.007,1172.986,1313.031,1429.017,1545.451,1701.669,1874.259,2078.229,2285.657,2467.812,2500,2500,2500,2500,2500,2500,2500,2500,2500,2500,2500,2500,2500,2500,2500,2500,2500,2500,2500,2500,2500,2500,2500,2500,2500,2500,2500,2500,2500,2500,2500,2500,2500,2500,2500,2500,2500,2500,2500,2500,2497.807,2483.288,2373.438,2215.824,2028.777,1803.297,1604.148,1395.523,1160.677,888.6091,657.9355,531.4316,451.7755,392.217,364.1765,307.0658,298.7531,286.713,282.8689,279.6279,279.102,278.808,278.0229,278.2155,277.894,280.162,279.0052,280.8947,280.9601,280.3635,281.4408,283.1408,281.6508,281.7567,281.6191,282.2918,282.2918,282.2918,282.2918,282.2918,282.2918,282.2918,282.2918,282.2918
263.7358,260.1429,264.8223,266.6273,266.6114,266.5859,266.5123,268.3069,266.7445,266.7381,266.9334,267.0902,268.8515,267.1648,268.9771,267.3487,269.023,269.1837,268.4775,269.2555,269.0478,269.3434,271.5446,273.9771,275.2049,277.7388,287.5374,301.17,322.3329,339.7379,361.2242,419.556,566.1564,806.6891,962.4593,1111.528,1251.872,1395.45,1532.069,1690.224,1851.37,2017.511,2222.089,2397.567,2500,2500,2500,2500,2500,2500,2500,2500,2500,2500,2500,2500,2500,2500,2500,2500,2500,2500,2500,2500,2500,2500,2500,2500,2500,2500,2500,2500,2500,2500,2500,2500,2500,2500,2500,2500,2500,2500,2491.205,2491.205,2483.288,2483.288,2407.421,2224.224,2025.605,1816.823,1584.182,1365.07,1108.109,894.2627,658.9976,525.3403,450.651,397.9207,358.5596,298.0672,288.2243,281.6735,280.8758,277.5635,278.1496,279.9692,279.3146,277.8741,280.0101,280.6446,280.8865,279.4198,282.3258,282.7444,281.675,282.0793,281.9344,284.3731,283.2925,282.2918,282.2918,282.2918,282.2918,282.2918,282.2918,282.2918,282.2918,282.2918
265.0014,262.6791,261.357,265.1283,266.1462,265.1922,268.9366,266.7156,268.3581,266.7518,268.5547,268.9707,268.9793,267.242,269.0415,268.9834,268.4491,267.7907,267.1908,268.5248,269.4899,269.3882,269.6496,273.1034,274.5225,281.3756,285.7199,298.376,321.4607,344.1499,362.8615,422.0952,554.0386,733.9647,931.0046,1068.023,1220.3,1361.508,1506.019,1645.434,1809.13,1980.824,2163.946,2317.6,2500,2500,2500,2500,2500,2500,2500,2500,2500,2500,2500,2500,2500,2500,2500,2500,2500,2500,2500,2500,2500,2500,2500,2500,2500,2500,2500,2500,2500,2500,2500,2500,2500,2500,2500,2500,2500,2485.603,2480.001,2480.001,2483.288,2483.288,2410.594,2204.408,1980.644,1752.247,1571.363,1334.074,1091.368,875.8237,677.6077,508.7661,439.2535,396.3502,358.9214,294.0931,284.9453,279.5277,278.5279,278.656,278.5436,278.5903,280.2804,280.3964,279.0692,280.9512,280.7241,279.6158,281.2166,280.2236,281.6412,284.1229,284.8412,283.8327,283.493,282.2918,282.2918,282.2918,282.2918,282.2918,282.2918,282.2918,282.2918,282.2918
263.6554,264.7353,264.8893,261.6648,262.8547,267.1064,268.2905,266.7785,266.7431,268.5722,267.1792,268.9194,267.3681,268.8659,268.0405,268.3884,268.8081,269.2386,269.1124,270.3447,269.4359,271.1743,269.2142,271.5462,272.0044,277.9719,283.2796,294.653,316.8813,338.5856,356.1215,395.8009,496.6134,688.0618,882.3599,1032.419,1168.195,1323.213,1447.766,1588.561,1743.932,1915.169,2083.973,2249.256,2431.885,2499.684,2499.684,2499.684,2499.684,2500,2500,2500,2500,2500,2500,2500,2500,2500,2500,2500,2500,2500,2500,2500,2500,2500,2500,2500,2500,2500,2500,2500,2500,2500,2500,2500,2500,2500,2500,2500,2500,2459.863,2466.576,2466.576,2483.288,2483.288,2358.481,2184.203,1932.33,1708.516,1525.57,1317.851,1076.922,849.9202,649.2263,491.8099,426.3518,388.584,352.1727,295.54,282.0771,281.0183,278.1396,280.255,281.3707,281.7099,279.6448,281.0615,280.9914,282.502,280.1606,280.8828,280.8593,282.6923,281.1233,283.4152,283.887,282.2271,283.5414,281.5967,284.2366,281.8557,283.5986,283.6524,281.7009,283.1968,280.2451,279.4726
262.7733,265.395,265.8947,262.0764,264.3029,265.7367,268.6582,268.7713,268.3351,269.8682,267.4339,268.8769,267.8401,267.3255,268.9704,269.338,270.9015,270.8144,269.0834,267.7585,270.6518,269.6281,269.4084,269.516,271.9162,275.1918,281.166,290.4654,305.6357,331.0809,353.3142,385.2315,465.1425,639.2836,857.7457,995.9375,1128.226,1274.841,1389.806,1514.341,1651.053,1827.925,2004.766,2174.667,2318.988,2499.684,2499.684,2499.684,2499.684,2500,2500,2500,2500,2500,2500,2500,2500,2500,2500,2500,2500,2500,2500,2500,2500,2500,2500,2500,2500,2500,2500,2500,2500,2500,2500,2500,2500,2500,2500,2500,2500,2459.863,2453.15,2453.15,2459.863,2459.863,2311.428,2134.152,1884.151,1666.76,1468.05,1284.855,1061.059,818.7924,613.6427,477.0266,413.6252,373.7626,340.6487,301.1193,287.5732,280.6862,278.5368,278.8518,280.8456,281.3914,281.2349,279.86,281.2887,281.314,281.4103,280.8809,283.0039,283.2917,281.5686,283.4869,282.1065,281.8871,283.4293,281.9711,282.3618,283.8701,284.146,283.5303,281.5602,280.3558,282.6243,281.7944
265.6986,263.6524,265.1608,264.5164,262.3024,266.3622,268.1501,269.0816,269.5682,269.0726,269.8004,268.808,268.9526,268.6223,268.6884,268.8261,269.265,269.145,267.5919,268.2931,269.1328,271.2651,269.55,269.3559,270.9656,276.1352,278.9006,287.4115,299.2328,326.9464,347.7741,382.9169,439.2885,571.5784,760.2612,948.8008,1077.544,1190.733,1316.49,1444.912,1567.88,1733.907,1900.879,2063.952,2213.262,2357.926,2500,2500,2500,2500,2500,2500,2500,2500,2500,2500,2500,2500,2500,2500,2500,2500,2500,2500,2500,2500,2500,2500,2500,2500,2500,2500,2500,2500,2500,2500,2500,2500,2500,2500,2500,2453.15,2453.15,2453.15,2453.15,2453.15,2246.571,2066.674,1849.926,1637.954,1452.678,1279.889,1064.192,807.8735,573.3862,457.2933,400.986,361.9517,330.4183,298.2737,287.3637,282.7986,279.5111,281.7929,280.3749,282.3057,281.4461,282.9375,281.4263,282.7061,279.9565,282.6435,283.5792,283.9821,283.7294,284.0325,283.9414,283.5673,281.5052,283.7751,285.1152,283.8748,283.4978,283.1202,280.7104,281.5631,282.7675,282.0966
266.307,264.2977,265.422,263.0835,262.6439,264.7478,266.4999,268.6211,268.5836,269.5733,266.9673,266.9583,269.185,266.7334,266.671,266.8948,268.9165,269.3589,270.518,268.7733,270.788,269.4686,269.4647,269.4278,271.4165,274.7042,279.8656,293.7114,303.3554,332.1328,352.9385,383.0104,410.6237,503.4645,683.9942,889.8394,1005.863,1127.858,1265.194,1395.528,1501.935,1640.663,1799.501,1950.442,2095.103,2234.889,2441.586,2500,2500,2500,2500,2500,2500,2500,2500,2500,2500,2500,2500,2500,2500,2500,2500,2500,2500,2500,2500,2500,2500,2500,2500,2500,2500,2500,2500,2500,2499.321,2496.279,2489.566,2468.048,2468.048,2465.706,2453.15,2453.15,2453.15,2453.15,2164.765,2010.058,1803.959,1627.772,1453.998,1268.099,1039.777,802.7948,570.8195,445.9041,386.8247,352.3452,324.561,296.0698,288.7053,284.9326,280.0887,281.2479,281.4884,280.8057,281.1419,283.2518,281.9652,281.3219,282.7208,281.2361,283.4737,282.7999,283.4709,284.302,284.9966,281.9706,283.5963,282.2331,282.3432,281.7637,281.4556,280.6111,281.7334,283.1303,280.6644,280.3338
268.1893,266.1915,265.5786,263.5282,263.2826,266.0062,266.955,268.1986,266.4282,266.1413,267.9161,266.6396,266.6532,266.8206,268.6178,268.5901,268.8136,269.2761,270.5201,268.6863,270.3962,270.8276,269.3089,271.85,271.0663,274.7449,280.4295,296.4304,301.6547,326.8797,342.9547,362.6877,387.6913,453.1493,578.8058,751.3509,926.3201,1065.852,1158.929,1292.112,1422.052,1585.252,1711.692,1837.802,1965.638,2159.288,2314.256,2418.088,2500,2500,2500,2500,2500,2500,2500,2500,2500,2500,2500,2500,2500,2500,2500,2500,2500,2500,2500,2500,2500,2500,2500,2500,2500,2499.321,2499.321,2499.321,2490.677,2490.677,2489.566,2468.048,2468.048,2465.706,2452.281,2452.281,2369.883,2221.353,2083.798,1926.571,1745.412,1585.368,1405.237,1207.226,1005.483,779.3741,561.0123,443.7577,386.076,346.5905,318.7434,297.7182,292.5309,285.5432,280.5078,280.6273,281.4134,281.3904,280.6975,281.5443,282.0866,284.7394,283.4332,281.4182,283.3774,284.9433,284.102,285.338,282.6238,282.5298,283.6726,281.5784,281.9183,281.2198,280.7034,282.9237,281.5213,280.2385,279.8981,282.5606
266.1848,266.0052,266.097,266.8432,265.313,263.2338,264.2943,264.7291,265.2151,265.3723,265.9434,269.0084,268.3841,268.5024,268.5305,266.8923,266.8153,268.8332,267.9274,267.8332,267.5217,268.9119,279.4352,271.9429,276.2999,274.3436,284.3132,296.9111,299.058,322.8864,337.5523,367.2445,377.141,417.5388,493.2257,644.5914,822.3981,949.9821,1088.793,1214.432,1332.292,1485.823,1654.613,1743.995,1951.657,2026.918,2145.067,2310.21,2500,2500,2500,2500,2500,2500,2500,2500,2500,2500,2500,2500,2500,2500,2500,2500,2500,2500,2500,2500,2500,2500,2500,2500,2500,2499.321,2499.321,2499.321,2490.677,2490.677,2490.677,2468.048,2468.048,2465.706,2452.281,2452.281,2275.719,2109.117,1973.234,1822.689,1665.328,1500.744,1337.426,1140.791,942.9157,731.8134,545.144,446.5341,379.2834,338.2433,315.159,299.2828,291.7319,286.9976,280.512,279.5148,281.2821,281.549,281.5406,281.7462,283.4278,283.6367,284.4145,283.3095,281.5405,283.4517,282.3932,284.0313,285.1766,283.8592,281.9787,281.9028,281.6999,283.268,281.5245,282.8298,280.8671,283.0414,283.0981,284.1038
263.1903,265.4098,266.1164,266.1579,264.6314,264.7718,265.8742,266.514,267.8354,266.8485,268.0972,266.4485,266.6,266.438,266.4365,266.7572,267.2565,267.1059,269.0042,268.2721,267.9046,270.8007,279.4276,287.2763,283.0372,284.4347,283.5886,306.3808,301.0055,318.3377,335.6103,353.0877,368.8366,388.1221,436.691,530.3041,676.6997,864.3134,985.7449,1114.108,1232.306,1361.081,1538.873,1732.573,1840.49,1946.911,2059.91,2264.457,2497.945,2500,2500,2500,2500,2500,2500,2500,2500,2500,2500,2500,2500,2500,2500,2500,2500,2500,2500,2500,2500,2500,2500,2500,2500,2500,2500,2500,2500,2492.557,2492.557,2481.354,2470.151,2458.947,2452.281,2452.281,2141.622,1992.421,1873.615,1716.613,1572.875,1411.799,1251.378,1059.912,877.2999,682.9732,534.286,444.2409,373.0281,337.536,312.7487,301.5886,293.0193,287.7871,282.6573,282.0177,280.2672,281.6125,283.7435,284.5173,281.8757,281.3917,281.7165,281.8036,283.3942,281.4924,281.8811,283.7419,283.912,282.3591,283.8763,283.8748,283.8932,283.7635,283.1901,280.7201,281.9014,285.0855,286.3556,286.5516
265.7101,263.7303,265.5814,265.4678,266.731,264.7548,267.3,268.158,268.9968,269.9902,268.5697,266.541,266.4987,268.4089,266.7268,266.5845,268.6632,267.702,268.9384,268.8533,269.5989,270.6963,280.1084,288.7838,293.5555,300.351,298.5569,317.8304,315.5564,323.4949,337.731,340.0907,357.9471,371.0646,397.1307,458.0344,574.9847,755.8608,856.0627,997.8713,1137.864,1261.093,1452.658,1563.383,1738.009,1895.309,2004.254,2266.341,2497.945,2500,2500,2500,2500,2500,2500,2500,2500,2500,2500,2500,2500,2500,2500,2500,2500,2500,2500,2500,2500,2500,2500,2500,2500,2500,2500,2500,2500,2492.557,2492.557,2481.354,2470.151,2458.947,2452.281,2452.281,2061.426,1889.175,1751.75,1619.013,1484.31,1336.024,1170.954,973.6513,799.8539,640.5258,513.9263,434.3906,373.8526,342.4916,314.344,303.6401,292.9886,286.0866,284.4931,281.3274,280.0825,283.167,285.4759,285.0235,282.1461,281.7316,282.12,283.7697,283.9109,283.7177,282.1151,281.7646,283.6454,282.3994,285.2921,283.7505,282.968,282.9476,281.7158,283.7471,283.9547,285.721,288.4954,288.3196
264.1342,265.749,265.6104,263.8828,265.0735,266.044,264.9897,268.6302,269.4642,267.1023,268.5083,266.898,266.6114,268.6794,268.625,266.9693,267.2169,269.8364,267.6284,267.4906,275.0182,287.3528,294.6682,295.0469,295.7162,309.575,314.8914,322.8704,321.2445,331.1465,336.1917,337.0257,342.1345,358.9773,376.5038,413.0488,475.3039,636.6619,738.9741,877.095,1026.118,1153.26,1303.618,1409.499,1568.949,1768.877,1996.948,2276.256,2500,2500,2500,2500,2500,2500,2500,2500,2500,2500,2500,2500,2500,2500,2500,2500,2500,2500,2500,2500,2500,2500,2500,2500,2500,2500,2500,2500,2500,2500,2500,2498.563,2498.563,2500,2438.855,2438.855,1961.653,1787.549,1638.152,1529.284,1389.102,1243.806,1041.31,876.4036,714.9534,578.2626,486.2749,426.7753,381.079,348.5481,316.0526,305.6468,293.1104,286.6461,282.8983,281.5796,281.2261,281.7312,282.204,283.9402,283.911,283.7753,283.9586,285.3853,282.8471,285.0061,283.7521,281.9804,282.0471,283.768,284.2341,282.9702,282.4484,281.5666,285.3698,284.5907,287.087,286.4667,286.6453,286.0339
263.85,266.5736,266.9099,265.6362,267.1756,265.0135,266.3163,265.6797,266.166,268.2987,266.4709,268.4081,266.7029,268.5104,266.8959,266.8293,268.7337,267.5886,269.7657,267.9569,273.6698,280.3906,299.7645,320.5284,312.5084,314.5337,319.7928,327.5705,321.9702,328.4886,332.6056,334.4198,335.6086,348.5676,350.1576,370.592,400.2916,473.9864,622.0262,754.0242,878.7551,1074.745,1185.54,1308.742,1498.91,1711.321,2011.611,2292.797,2500,2500,2500,2500,2500,2500,2500,2500,2500,2500,2500,2500,2500,2500,2500,2500,2500,2500,2500,2500,2500,2500,2500,2500,2500,2500,2500,2500,2499.057,2500,2500,2498.563,2498.563,2500,2307.478,2093.025,1902.231,1708.26,1556.32,1426.59,1277.234,1131.281,931.2112,759.5739,623.3459,525.5987,464.3649,408.5465,370.0547,338.9126,324.4282,296.1072,289.1307,284.5319,281.8314,281.195,283.3261,283.3746,281.7388,283.7753,284.9599,282.3593,284.0219,284.1477,284.1917,282.7845,282.4828,284.8849,283.808,282.1096,283.7696,282.3029,282.297,285.3702,283.003,284.5192,286.5807,284.7968,283.6877,284.9337
263.441,264.6508,263.7253,265.5695,266.1447,265.167,266.2251,267.5469,266.5687,266.7478,268.4562,266.8592,268.5452,267.0177,268.6644,268.7041,267.1369,267.1513,268.9064,270.9951,273.0942,278.4984,286.7572,314.5942,323.0948,332.9323,319.7024,299.5087,295.4149,304.8694,321.1455,336.9838,339.9739,333.0552,326.6808,331.5175,372.3909,426.5439,516.949,618.5897,738.2094,925.9207,1042.639,1207.039,1443.009,1724.039,2052.174,2339.243,2500,2500,2500,2500,2500,2500,2500,2500,2500,2500,2500,2500,2500,2500,2500,2500,2500,2500,2500,2500,2500,2500,2500,2500,2500,2500,2500,2500,2499.806,2500,2500,2498.563,2498.563,2487.497,2206.285,2009.214,1823.704,1608.028,1460.404,1310.2,1184.42,1006.568,840.7415,670.2868,531.8503,458.0662,419.1987,375.3974,355.9916,337.7263,299.9519,292.1721,287.5055,283.7885,282.99,281.3993,283.3807,281.8602,281.5967,283.4695,282.0891,282.0652,283.8931,282.3612,282.7105,282.9366,284.1445,282.8714,284.1523,283.8698,282.2723,283.9879,284.1415,285.2535,283.0701,285.4379,286.2753,284.5648,283.956,282.0116
261.4409,262.3151,266.0757,264.1371,267.2437,264.9123,264.5715,265.6189,266.1137,266.4779,268.4409,267.4699,269.4694,267.3806,269.7063,267.4617,268.7491,274.412,277.0213,289.4603,292.8491,300.1895,304.5639,306.3167,318.1124,325.8354,304.0999,292.5488,291.5012,292.698,305.4826,334.5264,329.447,316.8884,310.8705,320.9415,356.6684,413.7389,455.8178,561.6682,683.4208,802.006,905.0742,1083.708,1392.049,1719.282,2066.945,2413.481,2500,2500,2500,2500,2500,2500,2500,2500,2500,2500,2500,2500,2500,2500,2500,2500,2500,2500,2500,2500,2500,2500,2500,2500,2500,2500,2500,2500,2499.806,2500,2500,2484.43,2484.43,2406.987,2115.178,1906.006,1730.601,1536.503,1355.45,1225.292,1084.858,930.6067,769.6381,586.7881,475.7549,412.152,372.258,354.5497,346.3943,303.9875,297.1876,289.5945,285.9727,283.1261,283.3769,283.3755,281.7894,284.3593,283.6032,281.7202,283.4865,281.9606,283.9148,284.0522,282.938,282.7028,284.206,282.4808,282.5955,285.019,282.5824,285.2285,286.001,285.6933,283.1252,283.8427,284.2291,286.086,285.2614,282.7834
265.4913,264.1917,265.4427,265.8703,266.182,265.4703,266.3357,267.7198,268.2961,268.5042,266.8654,266.5161,268.4429,268.6418,267.2461,269.7115,267.218,267.2563,269.942,276.1071,288.9208,295.9113,299.9422,307.9812,317.4153,318.36,296.2663,292.2236,292.8466,294.651,301.0261,328.2799,334.4307,318.4195,308.0583,314.6862,334.9094,387.8361,437.8977,540.5669,611.1974,730.7928,816.9224,1001.787,1298.015,1672.402,2021.367,2422.309,2500,2500,2500,2500,2500,2500,2500,2500,2500,2500,2500,2500,2500,2500,2500,2500,2500,2500,2500,2500,2500,2500,2500,2500,2500,2500,2500,2500,2499.806,2500,2500,2491.122,2480.597,2480.597,2049.639,1810.569,1615.374,1451.914,1279.219,1139.021,992.1183,845.1422,693.0738,514.8504,425.0291,372.7456,347.0323,340.4655,301.6399,299.5379,290.528,286.075,282.8427,283.3349,281.5492,281.6888,281.6877,282.5036,284.5978,282.2076,281.6124,281.8488,283.8974,282.4359,284.1201,282.6027,284.1841,284.243,283.3535,284.3944,283.4712,283.3772,283.6578,285.7079,283.8493,285.8441,286.162,284.5871,283.1951,284.3198
268.0041,267.3708,266.1242,264.4452,266.3073,267.989,268.0563,266.2733,268.3452,266.9456,268.4595,268.2271,266.6982,266.554,266.8302,268.8741,268.9227,271.9663,274.8437,293.175,303.0001,290.1175,292.6131,302.9307,309.6759,321.5561,303.8277,308.8882,310.5712,300.7766,311.3651,329.6321,332.5156,313.4392,304.9738,330.6826,345.4047,382.8455,414.0507,516.512,575.4592,648.516,742.7625,967.679,1262.634,1671.486,2009.664,2381.045,2500,2500,2500,2500,2500,2500,2500,2500,2500,2500,2500,2500,2500,2500,2500,2500,2500,2500,2500,2500,2500,2500,2500,2500,2500,2500,2500,2500,2499.806,2500,2500,2491.122,2480.597,2480.597,2034.159,1755.196,1522.759,1354.041,1213.441,1039.1,911.7852,764.0183,591.7891,458.0787,381.2373,341.275,329.6463,308.36,300.9412,297.326,289.3768,284.6225,281.1803,282.3536,280.9507,283.9374,281.9596,281.964,284.3403,282.4435,282.1749,282.3178,283.9572,283.9717,283.1256,282.8087,282.9377,285.5039,286.0375,286.1504,286.1272,284.8285,283.7002,285.7258,283.9668,286.1016,284.5439,283.9851,284.3435,285.5775
266.5032,264.9387,266.2062,266.1206,266.4099,266.3221,266.5161,266.5197,268.4501,268.5566,266.7742,266.2542,266.2429,268.3085,266.874,268.6641,270.4197,280.9663,274.8437,266.4412,263.5853,274.7919,294.2497,314.4738,317.3418,327.8344,323.2496,300.9043,289.4715,291.3756,302.1047,323.6341,320.9838,322.0071,323.5743,313.1152,357.7675,386.2843,406.3192,460.6519,546.0867,594.5041,698.6829,955.5735,1271.11,1675.948,2014.458,2396.711,2500,2500,2500,2500,2500,2500,2500,2500,2500,2500,2500,2500,2500,2500,2500,2500,2500,2500,2500,2500,2500,2500,2500,2500,2500,2500,2500,2500,2498.964,2498.964,2498.964,2493.052,2480.597,2480.597,1959.216,1675.155,1433.835,1254.609,1088.147,932.6127,820.0821,666.4597,519.8967,409.2232,351.4076,326.3444,316.6382,302.0994,299.0905,292.7963,287.3979,283.8338,283.485,280.4035,282.7421,282.0705,284.349,282.1718,282.0763,282.4655,282.5416,282.6858,282.3565,282.2773,281.9535,281.9,282.9762,285.6299,284.697,286.7992,286.6608,286.6877,283.5204,284.1198,285.9883,284.084,286.1997,286.2981,285.802,283.9329
266.3864,264.4374,266.0521,266.3857,266.2195,264.9384,266.3853,266.3586,266.6325,266.6516,268.4109,268.3404,266.4578,266.5391,266.8497,267.2398,275.8291,274.9403,260.1859,251.2644,258.479,260.1735,277.4605,302.7793,324.0266,332.442,319.3575,309.9002,295.6468,303.1707,300.45,296.3586,308.9738,312.3118,324.5277,338.9425,344.2062,338.1338,435.0039,468.5379,522.0507,586.908,737.7279,968.4047,1324.274,1687.289,2076.77,2447.501,2500,2500,2500,2500,2500,2500,2500,2500,2500,2500,2500,2500,2500,2500,2500,2500,2500,2500,2500,2500,2500,2500,2500,2500,2500,2500,2500,2500,2498.964,2498.964,2498.964,2493.052,2494.023,2494.023,1976.347,1575.066,1330.652,1144.738,997.8583,866.9105,719.6705,583.331,457.9749,380.1592,338.139,323.7009,312.7089,303.1787,297.0028,293.2686,288.8855,283.6375,281.0806,280.82,280.6249,281.6526,284.4838,283.8327,283.928,285.0479,285.1391,284.2072,284.7874,282.5802,283.8006,284.0211,285.4666,284.0483,286.2856,286.7668,285.0719,284.4837,284.132,284.5439,283.9978,284.4254,284.6224,284.0631,285.1577,282.034
266.2159,266.0074,264.6028,266.1136,266.4698,266.775,269.7639,268.7628,267.6159,267.5677,266.8132,268.6919,266.9408,268.5737,267.1425,270.8591,287.2382,266.8403,250.3449,245.8449,246.7298,249.451,260.6301,290.1621,338.5073,311.522,301.9585,303.6064,290.5389,298.4339,284.4643,282.27,283.0905,294.9366,311.3727,310.3195,344.4864,370.5492,412.1506,462.0887,534.8133,621.1736,794.4965,1055.183,1436.058,1786.582,2182.63,2500,2500,2500,2500,2500,2500,2500,2500,2500,2500,2500,2500,2500,2500,2500,2500,2500,2500,2500,2500,2500,2500,2500,2500,2500,2500,2500,2500,2500,2498.964,2498.964,2498.964,2497.318,2499.674,2499.674,1960.201,1518.338,1265.591,1057.184,926.308,786.6315,633.65,496.1629,400.945,362.8609,338.8084,326.6434,313.3397,305.2674,296.6195,295.1867,292.3429,287.6495,280.8361,282.1489,283.1897,281.7488,284.0286,282.3319,283.9643,284.2057,282.8896,284.2605,283.9763,282.0361,283.4437,284.4733,285.9207,286.8259,285.0313,286.8917,288.0918,286.4929,284.649,284.1733,286.2404,284.6949,284.1085,283.8789,282.2631,284.0143
263.755,265.638,267.3311,266.4345,266.9458,272.5936,271.4869,268.0773,269.2253,273.5438,270.0869,268.8543,267.2223,268.8637,268.7832,268.7117,289.5717,265.0253,251.2203,246.4203,244.84,246.7086,264.139,283.3811,316.239,299.7263,288.2274,281.5147,272.0358,282.0628,276.8446,270.8058,278.248,291.3372,322.991,310.6611,326.7197,363.3787,440.5168,479.2888,503.8925,633.8328,880.4556,1175.066,1562.949,1916.91,2274.834,2500,2500,2500,2500,2500,2500,2500,2500,2500,2500,2500,2500,2500,2500,2500,2500,2500,2500,2500,2500,2500,2500,2500,2500,2500,2500,2500,2500,2500,2500,2500,2500,2500,2500,2500,1984.103,1502.013,1217.84,996.5591,853.2158,720.2546,551.3066,439.6867,380.9049,356.7171,340.6101,323.6371,316.7762,306.2257,299.8912,296.6,293.162,290.9416,286.8414,284.6181,284.7715,281.6852,281.457,281.7605,283.8847,282.5917,284.1973,284.1511,282.9145,285.0742,283.267,283.3529,283.7596,284.1043,285.0143,287.9889,288.2605,286.7437,286.279,284.2885,286.4655,286.0648,285.4282,282.631,285.4478,286.1012
263.1768,263.9533,265.9214,266.5166,270.4417,266.1581,262.1195,260.8764,261.6488,266.0844,277.1486,269.8215,271.751,268.7514,267.9937,267.9664,282.3987,268.3253,250.7406,246.5406,245.7399,247.83,255.1986,275.0093,320.8728,301.4609,282.8415,267.9449,264.9295,262.2,268.9967,269.9594,267.0395,277.8599,302.0736,308.7013,319.9026,340.3712,425.6313,460.781,509.6577,665.6234,891.8271,1232.814,1701.732,2030.802,2373.829,2500,2500,2500,2500,2500,2500,2500,2500,2500,2500,2500,2500,2500,2500,2500,2500,2500,2500,2500,2500,2500,2500,2500,2500,2500,2500,2500,2500,2500,2500,2500,2500,2500,2500,2500,2016.994,1501.524,1158.513,940.1362,791.1288,646.7298,495.1429,422.4493,386.2516,362.6016,340.1869,329.3087,323.5112,309.124,300.4392,296.8908,292.5554,292.2567,287.634,286.6624,284.4374,283.618,283.6299,282.1782,282.3797,282.7283,282.7993,282.6914,283.024,285.4162,284.6902,286.2475,284.7721,284.1028,286.4081,286.8766,285.1412,285.0321,284.1933,284.8172,286.0826,284.1448,282.4354,284.0233,286.1335,285.7026
266.2012,265.8741,265.9218,266.5385,270.5513,262.5921,259.4112,259.2176,258.7291,264.0741,275.9075,272.5898,270.2558,269.588,275.6052,269.4466,273.5099,279.2025,258.2996,250.7996,249.3508,251.7965,259.0452,281.2008,308.2084,285.1212,277.6497,262.8362,264.3668,257.6015,260.4997,269.9576,283.2046,299.7039,315.7264,315.4487,321.0902,337.7564,404.6265,441.4603,505.5625,677.9431,921.3393,1325.595,1673.127,2044.147,2381.824,2500,2500,2500,2500,2500,2500,2500,2500,2500,2500,2500,2500,2500,2500,2500,2500,2500,2500,2500,2500,2500,2500,2500,2500,2500,2500,2500,2500,2500,2500,2500,2500,2500,2500,2410.915,1982.863,1513.035,1116.217,883.5198,708.9913,587.8434,479.0114,424.5995,395.3223,369.9244,351.5653,340.1793,333.0291,322.2342,311.5485,301.3267,294.6741,288.7609,288.3955,287.572,285.0349,283.2921,284.0623,282.127,283.1024,282.7195,284.2085,283.573,285.4221,283.8037,283.659,284.0508,286.1387,284.6504,286.6234,286.7432,284.8245,284.459,286.3094,284.2585,284.3922,282.9243,284.1173,283.9871,285.2137,284.4293
268.2073,266.4761,266.304,267.9324,269.0768,263.2982,259.0569,259.0179,259.4776,266.3046,268.1796,266.6854,261.1106,264.0917,266.4527,276.9261,269.9642,278.3024,275.3997,266.0996,264.3508,267.0965,274.193,289.5195,292.6534,280.1173,275.3954,261.7819,269.7825,271.994,272.3605,282.0715,304.1596,323.8579,336.9333,343.1413,348.6129,360.1042,419.0268,453.8899,526.1829,651.4194,971.5638,1320.004,1692.542,2077.857,2435.791,2500,2500,2500,2500,2500,2500,2500,2500,2500,2500,2500,2500,2500,2500,2500,2500,2500,2500,2500,2500,2500,2500,2500,2500,2500,2500,2500,2500,2500,2500,2500,2494.525,2489.051,2489.051,2323.756,1934.276,1482.509,1074.219,839.7296,675.6978,557.7766,473.38,424.174,406.462,364.9143,361.3227,351.7337,340.3853,330.7377,319.5914,305.6245,292.706,288.41,286.3183,287.0986,285.1238,285.9777,284.1917,284.0699,282.9554,285.1643,283.346,283.511,285.9356,287.0708,284.8301,283.7408,286.0124,286.4242,286.7058,284.8739,286.5583,286.5858,286.1768,284.3313,283.113,285.8108,284.3263,285.2822,282.6923,281.2198
265.1483,267.7963,266.2618,266.5623,271.0097,262.6835,259.7225,259.1771,261.2999,268.7791,267.6545,263.551,259.7162,260.3137,262.3677,269.701,270.874,268.681,274.5177,284.1177,288.7761,285.2961,277.1061,273.4612,276.8931,288.9526,279.036,267.0406,269.0459,264.8593,263.3745,272.0422,285.6138,320.3699,324.5622,331.0766,338.9667,359.4288,422.0293,464.6101,540.6392,696.4222,1003.079,1327.128,1719.303,2123.613,2468.899,2500,2500,2500,2500,2500,2500,2500,2500,2500,2500,2500,2500,2500,2500,2500,2500,2500,2500,2500,2500,2500,2500,2500,2500,2500,2500,2500,2500,2500,2498.631,2500,2500,2489.051,2489.051,2252.884,1860.57,1432.237,1059.34,816.6439,646.7739,543.9658,487.679,441.425,379.9025,373.4076,368.8936,359.9508,348.3179,338.3376,326.4022,309.3801,295.2899,287.5056,285.2959,286.6244,284.5937,284.3803,282.8436,284.2272,284.2888,283.5807,282.9283,285.4394,284.5845,286.506,286.3086,284.1649,284.1446,284.4061,286.5186,284.8786,284.7875,286.3684,284.222,283.5403,284.7475,286.1539,283.9193,284.5669,281.2729,284.5996
268.6428,268.1369,266.5123,266.1927,270.7711,267.2042,263.1649,260.5091,266.1736,269.7365,268.3673,259.6401,258.8975,259.3801,263.9398,268.3876,269.0674,268.1158,268.6303,270.7304,273.5478,273.0071,272.692,271.5951,272.1117,276.5741,282.0741,277.4197,272.2764,272.7683,274.7267,283.5471,302.5684,312.4041,319.6734,325.8463,343.936,365.6655,438.6002,484.7364,564.642,738.1636,1022.177,1431.223,1795.212,2205.996,2500,2500,2500,2500,2500,2500,2500,2500,2500,2500,2500,2500,2500,2500,2500,2500,2500,2500,2500,2500,2500,2500,2500,2500,2500,2500,2500,2500,2500,2500,2500,2500,2500,2489.051,2489.051,2175.94,1772.312,1401.44,1035.445,796.1528,627.5357,552.723,443.7321,389.9626,382.0692,377.3201,372.4234,360.3334,347.3612,337.8849,325.1331,311.201,295.8002,286.58,285.7718,283.1295,284.1595,284.0415,283.3333,285.3727,283.3831,282.3534,284.0909,283.1752,284.075,284.7361,286.6778,286.4331,286.1945,284.5405,286.5676,284.9294,286.4606,284.3061,284.7126,286.2567,286.4313,285.899,283.6258,284.5669,281.2729,284.5996
266.7528,266.892,266.4982,268.3536,268.879,270.0524,270.4451,270.0777,271.8064,276.6187,265.8342,261.8344,261.3065,260.7658,263.0338,270.0594,269.0238,268.1158,272.2815,276.4815,292.7478,299.7071,286.6241,279.1452,275.2117,272.682,276.032,280.5106,291.7692,295.2683,306.3139,306.1773,295.9391,308.552,306.562,314.4969,319.5531,343.619,429.9827,470.4733,553.6234,697.7318,1034.89,1465.637,1821.182,2188.771,2500,2500,2500,2500,2500,2500,2500,2500,2500,2500,2500,2500,2500,2500,2500,2500,2500,2500,2500,2500,2500,2500,2500,2500,2500,2500,2500,2500,2500,2500,2500,2500,2500,2489.051,2489.051,2088.532,1701.369,1369.589,1008.212,788.8456,582.2332,490.1749,436.0411,398.7075,386.514,380.6227,369.1901,360.6387,342.8089,332.9142,324.5563,315.7421,300.4362,291.1797,285.908,282.1064,282.4358,281.806,283.8242,282.7868,284.2695,284.0779,282.9768,284.1859,284.2899,286.2581,286.5392,286.3801,284.5746,286.3492,286.7139,285.2291,285.0941,286.4913,284.8012,286.4133,284.3601,285.2648,282.0112,283.3949,283.6967,285.8859
266.5729,265.98,268.2031,266.6507,266.6776,266.853,267.9647,268.0823,266.8946,271.4332,269.429,265.4968,262.2914,265.7692,267.81,276.9738,271.0739,269.1316,280.0913,275.2914,266.8274,262.6677,266.1829,276.0456,284.16,272.5415,270.5916,273.2369,278.3386,290.1783,281.5246,275.1587,272.2222,276.3181,287.1217,305.7019,314.9657,341.7485,418.2433,451.7466,523.2889,667.8408,975.5094,1445.975,1789.755,2136.108,2453.093,2500,2500,2500,2500,2500,2500,2500,2500,2500,2500,2500,2500,2500,2500,2500,2500,2500,2500,2500,2500,2500,2500,2500,2500,2500,2500,2500,2500,2500,2500,2500,2500,2500,2276.705,1968.891,1673.49,1346.065,967.377,718.4923,600.1807,511.6871,439.4356,404.9236,391.6287,383.829,372.1836,353.9657,341.2313,332.5345,319.3122,311.3946,301.3877,294.0559,285.335,282.8961,283.1907,282.6714,282.5277,283.814,284.4315,284.753,285.8553,283.7904,283.7664,286.0915,284.4311,284.1252,284.0911,284.4214,286.4699,285.1748,288.0952,286.6177,284.1528,285.6616,283.992,282.3185,283.9757,284.3511,285.8894,284.0833
266.7987,266.5741,266.3906,266.4325,268.2189,266.2945,267.6682,266.6306,268.2258,267.3355,271.8908,270.594,269.1438,271.29,272.7101,271.3739,270.6739,276.3316,274.9914,260.8913,252.1274,250.6677,252.6821,260.4456,275.46,280.9415,272.0415,274.2369,283.5886,270.1783,265.7746,260.4731,259.3818,262.7317,274.4828,301.5409,335.0574,350.7922,411.7977,446.1397,504.8567,607.1878,839.6112,1288.252,1733.775,2070.455,2350.807,2500,2500,2500,2500,2500,2500,2500,2500,2500,2500,2500,2500,2500,2500,2500,2500,2500,2500,2500,2500,2500,2500,2500,2500,2500,2500,2500,2500,2500,2500,2500,2500,2446.738,2186.926,1921.448,1588.307,1253.53,915.0266,726.7627,606.1379,520.2878,438.8108,412.326,398.2862,387.3712,373.1767,355.4086,341.3206,331.8465,321.395,312.036,302.3235,293.1259,288.5114,284.5458,284.2545,285.366,285.544,284.3076,284.2822,284.2174,286.9798,284.7601,285.9656,284.2514,286.1723,284.2709,284.5917,284.7057,284.4177,285.0028,286.6534,284.8917,284.6437,283.4557,282.1411,283.8624,286.4422,285.8145,283.7136,284.6051
268.8103,266.537,268.2227,266.8652,269.2596,266.9614,266.7691,266.6481,268.511,266.7587,266.5061,268.71,270.2155,270.0087,269.442,269.1332,270.6332,286.6819,267.2314,251.8115,247.8484,247.0187,248.6798,253.9034,268.1379,291.1759,274.9759,287.0265,277.0619,265.4096,258.0639,256.4778,256.4174,260.4931,280.1512,297.7552,324.9447,356.8247,395.7813,420.3785,473.3197,583.5358,774.0601,1135.095,1666.009,2017.644,2299.196,2500,2500,2500,2500,2500,2500,2500,2500,2500,2500,2500,2500,2500,2500,2500,2500,2500,2500,2500,2500,2500,2500,2500,2500,2500,2500,2500,2500,2500,2500,2500,2500,2299.408,2049.875,1796.725,1506.558,1162.056,899.9568,726.875,603.9971,508.9766,449.3146,419.1503,402.8661,385.5992,373.5766,359.909,343.9398,333.0537,320.8272,312.6109,305.6508,298.6422,289.9733,284.6844,284.4278,284.4315,284.4791,285.8889,286.3499,286.3675,285.1568,287.3592,284.7277,286.3585,286.4458,284.3665,284.5636,284.689,284.6049,286.3932,284.5777,286.5632,286.2809,285.3986,282.6902,284.3246,284.3635,284.2072,282.5297,281.8553
268.9117,267.0093,266.703,268.5797,267.2033,269.0553,266.8699,266.3176,268.3577,266.907,268.3864,266.4778,266.5778,267.0895,268.7361,270.1836,271.6836,290.4012,265.7161,251.1523,246.594,246.4021,247.0511,252.4511,263.6341,289.3568,275.0568,285.9803,272.9658,259.2772,254.7603,253.9169,255.4913,255.9077,265.8823,276.4414,303.6553,339.3437,375.2938,400.8824,451.2466,527.3688,680.8174,989.5625,1443.262,1935.759,2247.319,2500,2500,2500,2500,2500,2500,2500,2500,2500,2500,2500,2500,2500,2500,2500,2500,2500,2500,2500,2500,2500,2500,2500,2500,2500,2500,2500,2500,2500,2497.464,2497.464,2497.464,2227.156,1976.24,1699.701,1386.828,1074.773,837.6484,673.594,574.9106,496.4982,447.3652,417.0408,395.5988,380.8468,370.8515,357.8378,346.9509,335.8449,325.5625,316.8214,309.5026,301.2465,295.6796,288.4871,285.6242,283.5355,284.4517,284.9958,287.7551,285.4436,286.8528,287.5457,284.6091,286.3376,284.764,284.7025,286.4702,286.5317,284.8062,284.5847,285.0028,284.8966,286.9112,283.5679,284.2793,284.2299,283.0495,283.3359,285.8051,283.1775
267.0555,269.4005,266.987,268.4418,266.7789,266.7532,266.8348,268.2915,268.7517,268.9908,268.684,266.7294,268.4465,267.2053,268.7361,267.5254,268.4254,283.5012,269.0161,252.0523,248.094,247.3021,248.5511,254.2511,268.1341,288.0481,277.8481,290.7303,272.4658,259.0272,255.5103,253.4169,254.0634,256.1522,261.6447,268.5709,287.9984,317.7073,358.0779,387.1177,411.361,470.4924,586.8286,869.4829,1255.663,1753.094,2100.048,2368.307,2500,2500,2500,2500,2500,2500,2500,2500,2500,2500,2500,2500,2500,2500,2500,2500,2500,2500,2500,2500,2500,2500,2500,2500,2500,2500,2500,2500,2499.366,2500,2393.431,2159.48,1913.888,1579.71,1276.293,968.6454,763.9227,625.9839,532.9019,481.8022,443.148,415.3912,393.6851,380.4818,371.4584,357.6136,344.3876,334.797,328.1333,319.0307,316.3146,310.7262,302.4413,294.3144,288.0185,284.6688,286.0551,284.8015,287.4942,286.9526,288.0907,285.4089,286.5636,284.6557,284.4856,286.4044,284.744,284.6801,286.5856,286.6696,284.8024,286.1225,283.3607,284.1157,284.1221,282.7667,285.5563,286.0117,286.056,284.0374
268.7366,267.172,268.6776,266.8979,266.6723,268.467,268.513,266.787,268.7663,268.9983,268.8003,266.7884,266.8572,267.0798,268.7361,268.9191,269.5191,273.9012,280.4161,259.8523,252.594,251.2021,253.9511,260.5511,278.0341,280.7016,276.1516,288.5748,274.6249,258.988,255.1766,253.7265,255.3141,256.175,261.9848,267.7065,287.2155,315.7826,330.3369,370.7445,396.6346,413.1631,487.2252,699.3535,1073.733,1572.38,1918.599,2179.75,2500,2500,2500,2499.883,2499.883,2500,2500,2500,2500,2500,2500,2500,2500,2500,2500,2500,2500,2500,2500,2500,2500,2500,2500,2500,2500,2500,2500,2500,2500,2500,2321.906,2069.38,1781.498,1470.409,1133.66,869.2924,686.6489,576.7255,502.4969,460.9709,429.8205,409.0677,391.3535,381.3764,371.6833,358.5504,347.3705,339.9097,333.178,326.4442,320.4793,318.1776,308.3113,298.6079,289.2535,285.8852,284.2391,284.6043,286.45,285.4504,287.0252,286.9521,287.7105,285.4387,286.5131,284.6037,284.6158,284.8773,284.9444,286.7738,286.5015,284.2446,284.4386,284.4233,283.1472,283.7294,284.0645,284.8322,286.4878,284.4535
265.9959,266.9465,268.89,268.5045,269.7514,268.6967,267.0107,266.8471,268.575,267.2672,268.8069,268.8171,268.7641,267.4189,268.6387,267.0054,267.0054,268.9879,280.0472,276.3016,266.4979,264.6019,267.8087,277.8935,291.3182,275.6016,272.8516,282.0748,277.8749,265.988,256.9266,256.9765,258.0641,258.925,262.2292,269.8671,291.4381,320.1341,320.1595,354.7298,356.9204,386.3248,457.8405,597.7051,882.7734,1271.201,1718.302,2061.602,2432.537,2500,2500,2499.883,2499.883,2500,2500,2500,2500,2500,2500,2500,2500,2500,2500,2500,2500,2500,2500,2500,2500,2500,2500,2500,2500,2500,2500,2500,2500,2500,2257.065,1988.577,1667.986,1337.544,1026.897,794.8198,633.3382,554.2548,490.4985,459.0779,431.8324,408.6781,392.7772,381.2563,369.3453,361.6189,356.9742,347.6073,337.6935,331.6447,325.355,321.4727,315.2637,301.6873,293.3375,287.7408,284.5239,284.4563,284.3354,286.4325,287.5579,286.6419,285.2868,287.9522,286.7622,284.5889,284.7091,286.6377,286.675,284.942,286.2976,284.3377,286.3019,286.072,284.1791,285.9991,284.6816,284.909,286.6081,284.5266
266.4688,267.9073,269.6332,269.6022,270.5747,267.2896,267.0447,269.6181,268.9659,269.7037,267.1953,268.8781,267.1346,268.7871,268.6387,267.0054,267.0054,267.1879,270.4472,275.7016,284.7979,288.6019,284.9087,279.0935,276.3182,271.1016,271.0516,275.8779,289.1037,272.4625,267.0374,262.5343,262.3952,263.7419,269.4419,283.817,300.8378,295.3129,295.5475,337.1519,341.2571,373.4432,423.3055,523.0453,767.6148,1091.203,1525.67,1906.865,2314.801,2498.597,2498.597,2500,2500,2500,2500,2500,2500,2500,2500,2500,2500,2500,2500,2500,2500,2500,2500,2500,2500,2500,2500,2500,2500,2500,2500,2500,2500,2358.138,2105.268,1823.087,1533.052,1250.82,947.5912,744.7609,604.9025,530.2533,480.0421,451.6711,424.4877,410.0558,396.5636,384.6912,375.6181,369.9355,366.4352,356.6938,347.5708,337.1296,332.4788,323.9924,316.6652,307.5571,295.83,289.2584,287.2857,285.9631,284.7467,284.523,284.6869,284.7899,286.6208,285.1318,286.645,284.918,284.7905,285.0013,284.7854,284.8462,284.03,286.3597,284.9612,284.4895,286.337,284.7322,286.5463,286.3665,286.3457,285.607
265.8621,265.2668,267.9777,268.5735,268.8945,268.5888,267.0096,268.8989,268.8581,267.0515,267.2049,268.8516,268.7457,267.0221,268.1491,268.7032,268.7032,268.4349,268.4412,269.4367,271.1286,271.4938,271.9957,272.5697,272.3058,271.7463,271.9963,272.2441,277.0484,282.5484,279.2711,280.1811,276.5898,274.9232,284.7231,298.9929,281.0122,276.4362,277.5617,290.0487,341.8759,377.047,421.3822,487.7069,639.2253,921.4384,1274.121,1736.676,2172.292,2498.597,2498.597,2500,2500,2500,2500,2500,2500,2500,2500,2500,2500,2500,2500,2500,2500,2500,2500,2500,2500,2500,2500,2500,2500,2500,2500,2500,2500,2284.587,1990.207,1665.437,1371.713,1118.909,861.7476,708.8842,597.8056,520.8429,475.2414,447.2825,429.7802,414.3453,404.7446,390.4907,383.0787,375.154,368.7236,365.6411,354.9499,342.9254,339.1579,328.4309,316.977,309.4069,296.0848,291.1085,291.9369,290.9042,286.4322,285.1483,286.5511,286.6169,286.9801,286.74,284.9395,286.6457,285.1407,286.6533,285.2114,284.6162,284.7203,285.2833,287.5965,285.1503,286.5112,284.4492,286.1372,284.4372,283.4648,284.6425
263.4081,266.9955,268.0212,266.4541,268.4356,266.709,267.0299,268.6894,267.4634,268.6901,267.0999,267.2605,266.9857,267.2715,268.1491,269.0318,269.0318,268.4349,268.4412,268.2367,268.7285,268.7938,269.5956,271.0697,272.0059,269.5409,269.5409,270.2441,272.7984,277.4484,286.3994,290.8311,285.6898,284.1386,282.9886,277.2919,277.538,270.3206,270.2653,275.822,342.9563,378.5998,410.8904,442.5563,567.6847,831.6331,1159.254,1603.041,1977.493,2317.96,2499.299,2500,2500,2500,2500,2500,2500,2500,2500,2500,2500,2500,2500,2500,2500,2500,2500,2500,2500,2500,2500,2500,2500,2500,2500,2500,2389.128,2116.423,1815.973,1517.513,1258.262,995.1061,796.7833,663.0146,576.645,510.1542,468.8625,444.5954,432.4071,419.0124,408.3477,399.008,388.3341,379.0064,370.843,363.9888,359.3907,352.7059,341.5606,333.3992,320.9087,311.7404,300.7572,295.8865,294.7097,292.4105,288.4453,287.7115,286.8861,284.9804,286.7685,285.258,285.1083,284.9025,284.84,284.8322,284.5575,286.5889,286.7066,286.7565,287.5072,286.4603,284.8571,284.6505,283.2913,285.519,283.3934,281.4091
268.0541,265.9242,268.4761,267.0874,266.9428,266.8324,266.8951,267.334,269.9566,269.7494,266.947,267.1553,267.2958,269.557,268.2178,267.9009,267.9009,268.8296,268.7534,268.9209,269.0651,269.3286,269.7039,270.1339,270.4434,271.0133,271.0133,269.4907,269.4907,273.6561,277.4839,272.2148,271.1123,270.7537,271.7537,264.0038,269.8419,267.4821,268.865,277.9428,311.1267,360.1633,373.9543,406.9991,496.0278,669.9929,963.4651,1294.974,1750.229,2083.666,2380.324,2500,2500,2500,2500,2500,2500,2500,2500,2500,2500,2500,2500,2500,2500,2500,2500,2500,2500,2500,2500,2499.762,2499.762,2500,2500,2392.388,2151.17,1890.671,1609.235,1338.576,1082.926,899.0071,759.1389,638.7892,549.9313,490.5998,463.7159,444.4698,430.4361,422.9609,410.7903,402.7506,391.8408,384.752,375.284,362.6928,357.0492,350.0576,341.0267,333.7467,327.1574,316.4092,305.3717,298.7519,296.3321,292.5779,289.1006,286.5124,285.33,286.4538,285.1204,287.2768,285.0716,286.7358,285.4297,285.3973,285.1,284.871,284.956,285.0587,284.6559,284.5786,284.1388,283.5775,286.8057,283.6289,285.1162,281.7409
266.866,266.5518,268.3778,268.6933,266.9366,266.8456,267.3086,267.4394,269.7974,270.0502,272.1529,271.9228,272.3629,272.7948,270.9678,270.1587,269.9087,268.8296,268.7534,268.9209,269.3651,270.5687,272.4039,272.2339,273.4434,272.8133,271.0133,269.4907,269.4907,273.4061,273.6339,268.8148,266.6123,266.2538,270.6537,265.0038,270.542,272.9299,277.0789,288.9829,280.928,345.2742,340.5834,359.868,423.8891,523.1236,727.5255,1059.189,1482.177,1831.911,2156.571,2500,2500,2500,2500,2500,2500,2500,2500,2500,2500,2500,2500,2500,2500,2500,2500,2500,2500,2500,2500,2499.762,2499.762,2500,2406.675,2157.172,1883.319,1653.01,1390.946,1137.987,957.5098,815.7332,703.0479,591.2363,533.381,482.5984,455.4734,439.9622,431.2542,421.4276,411.5234,398.0733,389.5533,379.1436,371.3914,359.5585,352.1051,347.0747,342.0883,336.0872,330.0956,320.7402,310.6563,300.6348,295.8577,293.9949,290.2533,287.2154,287.466,284.7903,284.6339,284.7365,286.5936,285.2804,287.4928,285.4437,284.9207,284.7868,286.7205,285.3132,288.105,289.0353,289.9975,288.3389,289.1069,285.7316,282.5746,283.8123
268.8076,266.5859,266.9005,268.3625,266.7359,268.4974,267.3972,271.5173,276.0467,288.9376,291.0676,278.2495,281.4519,277.0042,277.4678,271.4345,269.1845,268.8296,268.7534,268.9209,272.3651,276.8687,294.3038,301.3339,288.1434,281.2635,276.7634,271.4594,270.7094,273.2838,276.4834,268.6888,266.1819,265.9458,272.4447,275.8446,282.4326,276.2716,288.2253,283.8506,281.6696,271.7,328.9762,340.3104,372.5335,450.2522,569.7327,834.7094,1254.765,1598.298,1880.581,2101.993,2291.288,2444.84,2500,2500,2500,2500,2500,2500,2500,2500,2500,2500,2500,2500,2500,2500,2500,2500,2500,2499.762,2499.762,2317.402,2123.817,1878.252,1628.678,1402.873,1165.279,946.2718,816.2924,723.9469,648.6884,564.2563,505.3492,474.5666,450.1886,440.1753,428.2239,418.0081,406.9092,393.1525,381.8399,375.8842,363.8691,354.8235,347.2166,340.0218,336.6215,331.0528,325.4573,318.4057,313.2134,303.646,295.2892,292.5077,292.2362,289.1651,286.029,286.5988,284.9703,284.8496,284.9196,284.891,285.0497,286.7111,285.0599,285.0111,284.7122,286.9879,286.9063,288.2182,292.2461,290.9182,288.0587,287.9003,284.9294,282.8631
268.8159,267.1406,269.2217,267.0284,268.4639,269.6779,270.0851,273.1407,284.8322,273.9875,267.9073,266.4161,265.4286,274.111,277.7851,277.8777,272.1277,269.613,268.9878,270.9783,281.2667,276.3858,268.2652,262.8094,267.8973,278.4753,287.1753,278.6151,277.2651,276.8059,278.4781,274.0662,269.4668,267.4038,274.7824,282.5324,284.3399,274.3402,287.1263,275.7585,261.9733,262.7363,297.2542,323.0779,347.0126,403.0188,482.245,654.4411,906.5359,1288.083,1579.332,1782.042,1994.012,2146.97,2257.659,2394.359,2432.919,2500,2500,2500,2500,2500,2500,2500,2500,2500,2500,2500,2500,2500,2500,2365.326,2183.261,2003.769,1832.167,1610.02,1376.731,1155.25,959.4424,810.4064,700.3816,659.358,588.4644,560.7249,493.0387,472.9156,447.7996,441.2772,426.1016,413.5304,402.6362,387.6043,375.5396,367.3604,357.7149,350.3734,342.159,335.9706,329.8976,327.8025,323.4626,316.2978,306.4409,297.7234,292.3746,288.7176,288.1875,286.7521,287.2269,284.811,284.7874,287.0877,285.0756,284.9023,286.6984,285.0079,284.879,284.7905,286.9831,286.1026,289.7171,290.1841,290.0335,292.25,289.4085,287.8795,285.339,285.6545
266.6428,266.9424,269.3249,267.0247,266.8416,268.0219,273.4867,282.6506,269.0702,259.744,254.1431,253.1886,254.8084,259.0323,265.5351,282.6277,278.6277,271.613,269.2878,278.1783,276.1667,261.9857,253.5652,250.8094,255.1473,267.3753,286.1252,286.2651,273.8151,275.5059,278.2281,282.5663,278.5168,277.5038,290.4324,278.3324,270.6899,269.2903,286.6262,266.4585,254.8228,258.2798,268.1064,318.725,327.3187,370.1775,424.1475,535.6878,676.8987,976.3541,1225.146,1472.692,1704.741,1851.016,1975.786,2045.61,2093.731,2230.664,2333.113,2405.949,2483.878,2500,2500,2500,2500,2500,2500,2500,2435.92,2268.477,2166.517,2025.892,1883.699,1732.239,1579.142,1366.182,1151.428,970.5519,809.2462,718.9512,628.4561,556.4838,539.3282,493.787,494.8929,469.3828,456.9313,438.834,425.8237,413.6048,399.44,383.4409,370.9924,361.518,353.1989,342.3094,338.3907,332.8711,327.1542,324.4424,318.8568,312.6921,302.2817,294.0587,290.9377,289.4147,289.1409,286.1227,285.4881,286.6456,284.7924,284.8939,286.6778,286.8664,286.9209,286.9209,286.8734,285.379,285.8574,286.4151,288.3578,288.9879,292.5924,292.4318,294.9469,292.8088,288.8534,288.6367
266.4561,266.7303,267.1746,268.4201,266.3818,269.9116,284.2078,276.6169,263.1596,253.8439,251.3306,249.9905,253.3855,255.4126,260.5558,272.3757,289.8757,272.5864,270.0569,287.4088,268.3604,253.2272,249.0734,248.2793,253.2653,259.0915,268.3914,290.3783,269.2283,267.0194,271.4731,277.3938,281.6245,280.3746,279.9891,269.4391,264.3221,265.7241,279.2741,267.4619,251.398,253.098,264.0871,266.3414,341.6994,369.1016,397.1348,458.4592,530.7814,655.8931,920.0887,1139.397,1390.596,1541.919,1625.04,1699.262,1783.281,1907.63,1985.007,2019.233,2095.25,2133.748,2207.675,2284.418,2291.147,2271.584,2211.197,2132.267,2039.622,1924.88,1820.689,1735.725,1623.739,1495.612,1361.173,1132.386,933.251,811.3572,702.6419,613.3486,532.6442,507.1709,464.4532,472.0845,479.0263,463.8712,460.0429,442.3443,426.4952,411.6306,394.6997,377.2781,369.4055,361.4634,348.0182,339.7572,334.6273,330.7312,327.0037,319.7464,318.373,310.3712,304.8376,295.3533,288.9479,288.2142,286.0294,284.6971,284.9508,286.802,284.9378,284.823,284.8993,286.7069,285.1537,287.3074,288.1778,288.9666,289.9279,290.1894,290.8858,293.7201,297.6538,301.4146,301.24,296.0674,292.7661,292.5614
266.9213,268.522,267.3105,267.2274,266.83,269.3024,282.0451,269.4691,257.0278,250.4233,250.4982,250.679,250.9216,252.2603,256.3058,269.5249,285.0249,274.5864,270.0569,291.3088,266.5604,252.3272,247.8734,250.2293,260.3153,251.3168,255.6667,281.3651,264.4151,262.8194,265.773,272.8938,282.5746,282.1246,276.8961,268.1961,263.8721,263.6241,272.3241,269.9619,257.648,254.098,263.869,279.537,264.4525,345.6794,361.9821,411.9373,470.4434,492.4088,671.6237,801.6252,1019.844,1173.704,1292.482,1338.906,1452.738,1545.418,1625.481,1682.958,1705.006,1730.981,1801.972,1880.022,1901.221,1885.85,1840.243,1783.32,1742.705,1638.852,1557.449,1463.864,1376.547,1255.61,1114.88,888.2293,761.5334,666.7844,596.158,513.5086,483.1278,449.1745,440.1594,449.8897,466.9237,474.2201,454.6658,445.6899,423.2056,407.568,391.857,376.2453,368.297,361.1201,350.0366,340.1199,333.8136,327.5285,322.5991,317.962,313.7575,307.4551,300.9144,294.5952,289.1883,285.4921,284.3264,286.2602,286.8496,287.1188,285.0134,285.3763,287.4687,285.9188,287.9633,286.9458,290.0183,289.8949,290.9659,296.2839,295.4604,301.5827,302.5817,305.8642,303.9016,301.7828,296.8659,295.985
269.968,269.6519,269.8713,267.6382,268.5968,271.3579,288.703,268.6056,256.6779,251.2806,248.5107,249.9181,248.4678,251.4378,256.1749,264.3823,277.1323,274.1158,269.5034,284.3842,269.726,253.4888,250.3923,252.8201,256.2738,251.0032,258.0532,279.4588,264.3087,262.2566,264.9323,268.8236,277.4746,283.3246,278.8001,267.4001,264.8647,262.4665,266.9665,280.8878,266.1624,264.2624,272.2437,268.6702,255.289,260.8586,353.861,384.5688,403.8625,404.8888,507.968,577.1061,677.3685,790.0248,932.8715,1010.558,1146.828,1237.785,1334.61,1360.07,1396.34,1409.266,1405.777,1485.211,1530.717,1562.446,1540.705,1509.586,1449.62,1372.895,1281.212,1191.65,1094.662,968.8801,844.0635,716.8647,618.95,545.8931,502.588,469.1724,438.6402,429.1219,424.1882,424.6963,441.173,453.7589,453.2906,434.9819,416.0042,403.8571,392.1231,377.5433,368.887,357.4017,348.1484,338.1228,333.3943,323.0728,317.8469,314.5693,308.9539,303.9231,299.2948,292.4072,287.1441,284.8877,284.1168,285.0625,287.4579,287.0334,287.8482,289.5549,289.1381,287.7563,289.352,290.4848,292.4266,296.9734,301.4644,301.3678,304.4479,304.1218,308.4675,309.1383,309.5266,306.3229,301.9298,296.5737
273.2901,269.9237,269.0088,271.6728,268.347,270.5104,286.2509,273.8314,254.7855,253.677,249.3531,251.6859,250.9814,252.2962,257.4249,269.8966,281.1466,274.3658,268.9534,274.7842,281.126,261.2888,254.5923,257.9201,259.5739,258.6125,269.5626,268.7673,260.6672,262.114,265.6028,268.0363,273.7004,279.9144,283.0132,273.7131,267.6961,264.0488,265.1988,270.8378,279.3624,278.8624,295.2905,273.6405,263.9709,267.8359,282.1989,359.249,371.3175,368.6955,378.7477,464.651,488.3923,550.0272,614.7864,683.7883,813.496,907.635,978.8203,1039.974,1080.471,1101.009,1122.721,1190.432,1229.669,1255.61,1259.579,1197.438,1138.165,1075.686,959.2499,885.5565,802.4852,734.1329,630.4012,556.3742,489.1984,461.2544,457.5026,422.116,415.4592,413.9465,408.5863,411.7329,418.8571,430.5604,442.1702,424.3705,407.3402,398.2807,384.8523,376.356,369.1408,357.7583,349.5371,338.3694,327.2523,317.6669,315.8043,312.1646,304.6107,300.7939,294.871,289.3687,286.7457,288.7174,286.4699,288.3553,291.2385,290.4521,291.3275,294.3138,291.9642,291.2213,293.9203,295.8181,298.0034,303.3955,308.4293,310.5389,313.7673,311.1269,312.8927,314.0992,311.9427,310.5053,303.4514,301.837
271.4016,272.3594,272.2677,270.9927,271.6005,269.799,279.7725,278.0709,261.6307,253.7048,254.0772,253.6494,255.0179,254.9383,260.1749,275.0474,284.7984,272.3658,268.6034,270.5842,280.226,278.3889,270.0424,273.2201,276.9738,274.0626,281.2626,264.4173,259.1673,262.864,266.0529,268.6363,275.5004,276.6144,276.2631,280.4631,273.5461,269.4988,268.1488,272.5258,280.5258,288.6189,301.5088,293.4087,278.6131,271.8631,272.3425,278.3357,296.8926,336.5825,331.4285,372.3258,387.9627,406.9919,433.2061,485.4121,537.2577,610.3906,671.6741,703.1428,739.0034,798.8536,848.2538,885.1759,930.6956,918.3372,896.5523,878.3208,841.2454,794.0768,699.8412,659.1388,591.4599,550.6794,476.8575,446.4245,430.4214,410.9341,406.0402,402.6454,399.0878,395.9149,392.1592,393.4091,409.6528,414.1802,424.5866,416.7751,400.8288,385.6363,378.2245,372.4362,365.4995,357.0047,344.8712,335.7036,322.4691,316.0977,305.9564,302.7901,300.2704,292.6329,289.5981,288.8527,286.6176,287.0497,291.3575,291.432,295.7038,295.9055,297.0604,298.655,299.0963,303.3429,302.8953,305.7107,309.675,316.0726,323.4168,334.0231,343.6689,358.5982,344.1216,340.4902,322.2834,314.8874,307.447,305.7354
272.9892,272.6332,272.5724,272.2686,271.5744,272.1418,275.2729,285.7161,268.561,264.1888,257.0223,255.9467,257.772,263.6592,267.7258,286.1314,275.1314,271.5838,267.4044,267.89,270.9052,276.8149,288.7206,293.5762,298.3637,279.5759,266.3759,263.5705,262.6705,264.6236,267.0736,270.8588,284.0639,276.3134,273.9153,276.0154,279.8002,277.5941,276.6942,279.7236,281.1898,280.3008,277.8783,288.1331,279.102,273.002,273.4023,290.6317,282.1375,273.2444,285.6265,308.9845,320.2063,318.3661,353.8065,370.8595,406.5139,451.0081,494.6013,517.7737,532.2256,573.7435,613.2669,648.8297,651.5024,644.1855,630.2364,629.3619,611.8607,577.5116,539.1031,509.9608,457.1563,428.942,405.8015,388.8693,386.4097,385.8497,386.7035,383.2238,384.3118,381.9899,380.9396,380.4838,387.4065,401.536,402.5945,397.5848,392.8586,378.1664,370.1075,363.1982,362.1339,350.4521,341.2483,327.8665,315.8967,307.7816,298.5807,296.6811,293.4887,289.9008,286.2528,286.3347,290.2269,288.417,290.3495,295.963,301.2312,303.6305,306.6486,309.6918,316.0149,320.9699,322.25,323.24,328.5117,342.1446,354.4349,369.6399,377.0159,379.7021,375.9846,377.0028,374.6291,361.8754,362.117,362.1953
275.495,275.1791,274.4347,276.6593,273.0631,272.8721,273.3036,275.9585,278.9132,274.2461,270.8181,269.1041,271.4713,274.6931,285.9908,275.9222,270.6314,270.0838,267.4044,267.89,269.4052,270.215,273.5706,272.7263,277.3637,279.4259,269.5259,268.8855,267.5355,270.0236,273.3736,277.7588,276.714,274.3827,274.6769,274.9769,275.1502,277.7442,276.9942,278.5236,275.1898,274.1508,272.8783,273.2331,280.402,283.052,277.0023,276.0163,276.5216,270.0274,269.9632,271.7113,283.7782,292.2972,300.1228,311.7474,324.5495,348.3423,376.8873,403.1253,422.3837,441.6643,455.5248,472.869,487.1875,484.7724,490.3046,488.9923,463.5768,434.5901,430.7115,408.5425,397.2115,370.0208,364.3319,367.5679,373.8026,357.024,362.1776,369.1115,376.5266,368.9577,368.196,368.3567,372.7735,385.0701,382.7681,386.0768,379.3967,368.3587,360.4106,359.3172,353.8317,348.4688,335.5468,318.0547,301.7447,297.9452,292.2545,289.8466,288.7649,286.2753,287.1851,289.2637,289.8453,292.2677,297.8121,301.6845,309.7812,317.2367,324.3909,332.4753,339.9518,344.5807,348.1056,347.4153,352.0022,356.529,368.6689,382.2599,391.6577,391.5689,393.159,396.0507,397.438,398.4048,392.3436,380.702
277.7329,279.2646,278.4037,278.3653,277.1239,278.8867,273.1787,273.7979,274.8298,278.0056,286.6426,287.234,287.0973,281.279,277.0932,272.4517,270.4106,268.6272,268.6191,269.3354,269.7129,270.3153,270.0991,270.7701,272.054,273.6043,276.7543,274.8461,273.9462,278.2458,281.304,277.9397,275.4609,281.3098,293.3068,280.2568,274.8527,274.539,274.3891,273.6731,273.4511,272.8443,272.7401,272.7401,273.6433,273.6433,273.5746,274.2549,277.8163,270.1394,268.5969,268.2731,269.9805,274.2792,286.1101,289.0463,295.8462,307.5038,319.3687,321.1701,340.8598,350.4847,356.2558,362.9547,380.0431,385.7405,399.0471,391.0973,385.7202,385.503,387.0108,368.4771,363.2469,351.9925,333.2689,335.2785,336.5051,343.2754,350.352,360.8409,366.1884,364.5181,355.4993,360.3436,361.1244,360.679,367.338,366.3738,362.9865,358.2523,350.2128,348.9388,345.3893,338.3175,327.963,311.1239,299.4145,291.1455,289.5945,286.2385,286.7559,286.8579,286.2936,289.5165,291.0264,293.1216,303.7588,309.8507,321.6441,337.5552,351.2314,365.3997,374.383,372.3392,369.7453,371.3755,374.8522,385.8408,387.3418,401.7019,417.433,421.8454,433.5685,432.1757,433.1665,436.6021,431.6739,411.9492
284.0306,281.0673,282.77,281.6006,283.7931,282.4902,280.6403,272.2274,273.4616,272.0026,273.1228,278.6277,277.7873,276.5009,272.6595,269.7924,267.7032,268.7965,268.6191,269.3354,269.7129,270.3153,270.0991,270.7701,271.454,272.5119,274.1619,277.3016,276.5516,276.2901,277.1398,277.2674,283.8463,273.7807,268.8075,272.0074,281.1427,274.9768,272.7768,273.3731,273.1511,272.8443,273.026,273.0062,274.8433,281.4933,295.3508,283.2769,284.3361,279.9998,275.89,273.1002,273.8993,276.3544,283.2936,277.909,280.0134,284.5681,288.671,275.9492,283.6637,295.0465,306.8726,318.7182,324.1418,325.3367,338.0183,340.2299,346.7645,349.3853,355.2769,346.9182,311.8749,300.1019,294.5445,313.5786,317.3916,330.2118,343.3375,352.0526,352.6899,342.4544,342.3262,340.4937,348.5584,354.3894,352.2022,356.9351,356.5472,345.7831,339.5728,336.9981,332.6759,330.3648,322.3508,308.282,296.0045,290.691,284.7592,284.8872,284.9673,285.6411,286.8553,290.1217,295.9357,299.3479,309.4901,322.394,344.5651,363.2543,377.3797,392.2726,398.7182,395.6803,395.3907,407.7907,421.4555,446.1446,461.9033,472.2965,500.4236,528.1221,528.9826,529.7014,510.4447,502.1749,482.0808,480.8956
287.5261,292.5971,289.2946,290.6412,288.5421,290.2256,284.805,281.0183,275.7942,274.4804,274.6485,274.8568,277.4364,274.3662,274.1759,271.58,268.6091,268.8304,268.6191,269.3354,269.7129,270.3153,270.0991,270.7701,271.304,271.9119,271.7619,272.3516,272.2016,272.5401,274.7398,280.1674,272.4462,262.3807,260.2075,263.2075,270.1427,280.3767,272.7768,273.2285,273.3087,273.3471,272.9842,274.1138,284.6753,275.8446,275.0351,290.438,305.7639,291.0811,292.5618,286.36,287.5345,282.89,277.8636,277.1137,278.2133,280.3065,282.6389,265.8353,267.7506,279.8701,280.2242,278.4287,282.7954,295.2861,308.2256,305.0185,308.5163,301.7595,290.5977,271.7799,271.1991,276.1158,280.4214,290.9408,299.4573,308.568,309.9092,323.3947,321.0409,317.3582,319.0055,321.6313,336.8764,342.1738,345.2143,345.3585,344.7875,335.7089,332.3339,331.2076,324.7675,318.7154,316.2356,306.7991,298.3887,292.1064,288.241,287.2402,289.3799,290.4466,291.1262,293.1287,300.9438,307.936,323.1407,340.2982,362.431,384.615,404.4317,423.1615,438.8537,457.1448,482.4925,517.2817,570.4686,614.3163,655.5201,675.0141,715.4178,735.5925,752.5381,728.2946,725.7584,646.755,581.6519,549.4863
299.5314,299.4753,299.0896,297.6584,296.718,295.9087,293.8769,289.889,285.2376,278.4707,278.1557,278.5103,278.2409,278.489,276.5024,274.0305,272.1197,272.2567,267.8992,270.7926,270.0634,271.124,271.3584,271.442,269.8755,271.4673,271.4673,273.1949,273.1949,273.2735,274.0935,281.6043,269.1783,260.3695,257.6705,259.4705,267.48,286.3332,272.6068,272.4714,274.4313,270.1592,271.6092,276.9216,274.5274,268.902,279.7268,274.5384,276.1034,283.3787,276.8145,282.3929,286.5089,285.7419,281.3162,278.5183,278.7965,278.3857,276.0152,256.2169,247.3468,255.879,266.9944,264.9425,261.05,268.0999,284.2049,263.2846,252.5552,245.482,242.8056,238.509,240.7716,248.0476,248.4997,261.8292,261.1158,270.2852,282.8456,288.9277,288.8801,282.5003,297.0549,297.1911,303.2829,321.2913,330.7296,335.7976,332.6051,327.8739,326.399,323.701,319.6516,312.3691,308.0631,303.2529,299.4515,295.2847,291.8468,289.1823,289.9507,293.6754,296.0086,300.0092,310.0745,318.0956,338.8882,372.0712,405.5771,442.7198,475.6652,532.5884,583.1838,647.15,743.4688,806.2445,849.5065,892.7297,919.6641,956.4362,954.5896,971.3857,974.4179,955.9434,933.1879,899.6498,803.279,741.7802
303.4985,304.1237,301.5438,301.0484,302.0612,300.9562,298.794,297.2777,290.924,285.3459,281.2326,280.9352,282.1179,282.6951,280.3943,275.6823,272.4911,272.1919,270.485,269.4385,268.7935,269.1419,269.5568,270.107,270.2573,270.0197,269.5697,271.9826,271.9826,272.4018,272.4018,277.3313,273.8912,260.7544,262.1725,264.5725,271.6801,279.7332,272.9253,272.4298,273.144,265.7617,266.6467,276.356,274.9999,277.9633,262.1564,256.2528,261.5958,283.3366,270.6685,268.6786,274.3461,287.9041,281.3065,270.675,266.3592,262.8294,251.1397,229.9585,227.7605,218.9674,228.3994,228.7616,221.2842,206.8937,210.8791,210.7605,208.3322,207.8759,207.544,208.4428,210.9532,217.329,221.7536,226.052,234.6683,241.7636,256.0854,267.1069,262.3144,253.0789,249.3066,247.7699,254.7014,297.9682,302.9355,315.0758,320.2893,323.9473,317.6058,314.586,311.2453,307.4979,302.6727,301.0829,297.3149,295.9644,293.9326,293.5117,293.6852,298.1404,301.1233,322.6491,323.9834,342.1844,369.9003,405.4191,432.4397,498.232,578.4003,695.8668,789.8572,875.7665,940.5143,993.3346,1025.07,1081.967,1129.013,1162.229,1237.38,1264.704,1278.883,1247.437,1195.711,1150.337,1113.636,1011.408
313.5655,311.5183,310.6949,308.2886,308.9816,308.7792,305.7323,306.4065,300.0817,292.5112,288.1902,285.161,287.1972,288.9686,284.0234,280.0325,274.7729,277.065,273.6357,271.7765,271.6047,270.5443,271.835,276.244,275.9415,274.3697,273.0197,273.3326,272.2826,272.4018,272.4018,272.9313,283.6913,273.7544,270.7725,275.3725,286.6801,274.3787,272.8337,272.3719,259.2665,256.7361,253.7873,259.46,276.486,255.0519,250.9622,244.8534,256.7499,267.232,264.1148,264.8553,257.4974,253.7843,255.5083,224.6305,215.406,212.7831,209.6975,188.1414,184.6205,185.0251,180.5304,183.0475,187.7923,186.1476,201.0162,202.6303,194.932,193.8412,194.177,196.3388,202.1898,205.5645,207.1278,211.2374,228.7661,226.1603,237.6304,249.9255,253.0246,242.0891,233.7806,221.8354,221.9318,229.0655,244.0352,249.1374,260.8773,315.8385,311.4058,304.1818,301.9579,301.8712,301.2578,296.7977,299.4512,295.17,295.4188,292.6763,293.8498,299.0537,330.253,334.8871,343.9127,365.5723,389.4606,445.107,504.4199,613.0408,756.5631,868.8697,945.0223,1027.233,1075.441,1140.231,1204.413,1265.488,1343.512,1388.938,1447.829,1489.13,1500.846,1503.04,1456.355,1367.897,1324.796,1229.145
325.4674,321.2131,317.3755,317.555,318.0714,315.47,314.8385,316.5585,313.1668,302.6376,298.7217,292.8197,292.3275,292.8782,291.3192,287.7722,282.629,278.7702,276.1677,271.0782,272.9356,275.1223,281.3662,273.8004,271.1454,273.6922,276.9922,279.521,275.2032,272.8762,272.4262,272.3802,273.5513,279.1068,281.9947,278.2137,275.2241,274.2811,273.886,270.8846,259.9329,264.4101,236.4014,233.7332,249.0352,243.4735,234.2457,241.1994,260.4286,251.1301,246.2561,241.8947,223.3871,226.1874,234.4051,218.3475,205.9634,200.8414,200.756,180.0138,175.2985,170.303,168.3741,169.133,173.4493,184.6357,195.7074,200.5285,190.7521,189.4106,187.458,188.0062,191.1602,192.0367,194.1924,202.363,211.7139,228.0654,227.5528,237.0249,249.6397,233.2475,218.2913,213.3212,212.6825,210.9906,224.9216,232.5571,241.2294,244.6877,272.2122,276.7333,297.7495,298.6068,296.723,293.6074,295.1078,295.2165,294.6991,291.3082,294.4332,338.876,341.8365,352.8906,375.6338,402.1466,436.805,506.3864,643.0652,800.7482,924.389,1017.851,1092.47,1171.88,1210.007,1280.307,1358.477,1411.186,1490.386,1549.827,1596.268,1668.05,1696.193,1698.497,1651.337,1565.542,1492.711,1421.738
333.6996,329.5544,326.3102,324.8212,324.9517,323.3746,326.2791,325.9799,322.3376,316.3358,313.3231,305.8887,301.0654,301.6453,297.6726,291.2128,288.6946,282.6845,277.9967,274.2787,274.7706,275.3414,269.1703,266.7169,262.7353,265.3706,269.4206,276.971,279.5532,276.1552,274.3552,272.3802,272.7513,273.3068,273.7947,273.7074,273.5768,270.9802,271.4983,276.3787,241.2671,211.7029,212.0212,220.5392,225.9698,230.7773,234.6172,239.7653,227.2168,224.0191,216.5652,220.9695,220.9639,226.1126,213.1051,201.8642,191.1456,184.0307,178.5875,168.3658,164.7063,164.3803,165.3063,169.6212,171.5438,179.1516,198.1426,203.7443,203.5906,192.2366,187.6001,185.7402,184.6333,186.2796,190.4811,200.1503,211.4537,243.6555,236.3614,240.7246,230.7135,224.9083,209.5189,202.3647,201.8183,200.3566,200.5689,213.6973,218.5459,221.3058,259.2583,274.5462,283.8609,289.0469,290.5356,293.2268,295.8484,295.5104,294.459,295.5912,324.3459,346.4476,361.4661,392.2354,410.0578,449.7514,516.624,653.2646,828.6981,952.7948,1053.635,1169.481,1238.522,1285.558,1358.658,1412.954,1491.854,1553.35,1613.277,1698.462,1772.356,1822.036,1861.849,1873.343,1832.084,1798.339,1665.469,1584.252
345.2132,338.7634,331.9433,332.4603,330.5525,331.8087,332.1124,333.3743,329.2482,328.0012,323.2006,319.278,311.5773,307.4857,302.1288,296.5383,292.0126,283.2934,278.5678,276.8536,286.6992,270.5682,266.4423,262.5181,262.2857,260.8763,263.4262,271.4051,281.7954,278.3671,274.6171,272.8221,275.3869,274.494,272.5109,272.4282,270.5672,267.5617,271.1559,258.2673,205.6334,194.8006,204.2969,212.2955,221.1587,220.995,213.052,223.4306,211.5005,211.5873,210.4097,206.9651,206.1853,197.4337,192.6536,184.1498,177.8859,174.3044,175.2057,168.6648,164.9592,164.7991,165.6613,168.8064,171.4819,181.9665,204.0731,213.9364,214.1938,196.3123,193.3923,189.9266,192.0778,190.1512,192.3208,215.2945,233.3,254.4111,249.4982,228.9474,215.0247,210.5225,195.6789,189.9315,188.3411,185.751,181.3917,191.7441,189.3452,197.3808,197.8966,272.4923,281.8147,290.0529,290.9251,291.5311,294.856,297.9763,297.5212,301.2227,348.6222,355.4822,376.0115,414.2102,463.9246,527.6295,640.0819,811.2697,959.037,1092.71,1198.784,1283.723,1373.107,1437.677,1474.821,1534.483,1626.958,1701.453,1766.507,1829.888,1911.784,1996.651,2071.644,2062.091,2026.869,1977.754,1867.435,1759.509
356.8474,350.0395,343.5518,343.3072,341.7622,344.8241,343.8012,340.6616,337.6481,337.1472,335.4078,327.9594,320.1344,314.4738,308.7335,300.1639,297.1009,288.2784,281.5045,283.0232,282.7365,270.0847,262.1125,259.4091,260.5665,259.0763,261.4762,267.3551,276.5454,279.2671,274.7671,272.8221,275.3869,274.6148,273.0457,272.2146,269.3534,263.3806,260.2738,235.0895,198.1272,195.3795,201.4618,207.9425,216.3898,212.0574,207.0023,188.587,186.3202,177.6208,191.5739,199.7346,194.3529,190.5039,187.4872,177.2885,173.1236,171.9722,172.5075,167.7707,164.8507,165.0792,166.6576,169.9883,177.4369,185.6323,215.343,216.5404,208.8125,210.6071,194.5434,201.2447,222.8804,235.5058,247.2628,249.397,250.6182,254.864,253.1952,230.5272,220.6803,206.8983,202.7214,178.0275,171.2329,165.2949,160.6854,159.4315,168.8523,174.1952,176.7276,258.0549,288.8969,294.2482,293.1341,294.3138,296.4711,301.2752,302.2469,349.4987,351.8166,370.3057,406.295,457.7527,524.7625,610.1046,754.8148,929.5122,1091.029,1222.916,1324.072,1418.256,1510.995,1574.547,1638.054,1693.854,1766.175,1851.717,1916.97,1975.634,2066.132,2160.302,2221.17,2245.497,2207.731,2127.424,2071.288,1916.121
376.6015,367.0612,362.6846,360.771,359.3436,358.1774,358.8258,355.7872,351.443,348.9181,346.3277,338.4135,328.9732,319.3625,315.1719,306.4556,303.3099,294.8367,287.6967,293.1803,282.7641,269.0904,264.4082,258.807,258.4848,260.377,262.743,269.2881,274.4105,278.7437,275.2329,272.7734,274.6272,273.0836,272.405,273.36,267.7733,245.9469,245.4652,227.8329,206.1042,203.8976,202.0699,201.4561,197.5072,206.7357,181.5785,168.737,163.8866,167.6994,179.1307,208.318,200.5367,197.1953,184.7355,177.8066,176.9441,176.7458,172.6775,167.3643,168.3159,170.8335,175.2582,187.6364,195.0143,207.7486,213.1154,212.1451,210.5368,209.2291,214.183,231.4991,246.6517,263.5264,262.6922,260.0947,264.0631,268.448,277.7864,257.3287,240.4964,230.291,215.376,170.6263,155.0727,145.0541,141.9221,138.6677,151.087,150.1571,157.9932,195.2958,299.5099,303.145,299.3133,296.5428,298.2106,302.2368,306.4864,357.154,367.9256,397.7697,440.1619,501.8359,572.1195,718.4409,904.2327,1055.391,1209.714,1345.318,1462.052,1565.085,1650.928,1723.157,1803.225,1888.051,1951.748,2015.037,2116.839,2175.855,2265.528,2346.618,2413.668,2422.922,2428.702,2340.101,2246.019,2105.965
397.5948,386.7814,384.5628,384.4299,379.2595,379.3573,381.8171,370.5692,362.921,359.9622,354.0049,344.6703,338.4384,329.0062,322.0375,316.1151,306.8201,302.6149,297.0182,297.5337,290.0204,271.1545,266.1683,260.5139,259.3242,261.4693,263.536,270.5121,278.4153,277.6644,273.045,272.6733,274.7493,273.7855,272.155,267.2542,252.609,245.8434,237.3187,233.1681,224.4103,218.7477,210.2606,199.9815,193.3723,182.7909,175.164,169.3679,170.3909,176.0636,186.8847,200.3624,209.7074,195.7203,187.4169,181.334,184.209,185.0176,185.9739,174.9425,184.6127,194.1789,197.322,201.6357,229.5675,221.7856,230.7538,237.6481,249.9945,270.3597,263.0696,264.4939,271.5524,286.3203,307.3611,290.2181,279.1055,276.3993,286.7142,290.5841,269.8569,260.4037,231.8363,223.7728,148.5771,136.3172,130.4199,130.592,129.5162,141.5962,145.1074,152.3353,280.3114,309.5128,305.079,300.1432,297.9789,302.911,364.6003,363.4482,379.3586,414.915,483.9344,570.2188,665.2719,831.8538,1021.326,1173.481,1324.161,1469.219,1586.248,1701.453,1788.664,1891.261,1998.309,2082.593,2183.642,2267.785,2323.56,2421.004,2456.093,2475.234,2473.56,2472.013,2467.303,2465.777,2405.406,2270.199
427.0083,414.7497,412.1262,420.1553,422.8267,423.84,411.8291,399.8645,388.9243,375.1999,368.0355,359.1271,349.4408,341.5004,335.276,328.9574,319.2267,311.2843,302.0246,298.6852,298.9148,283.738,269.2166,262.6793,263.0201,263.7583,266.2361,270.6348,286.6479,276.1583,275.4782,274.3644,273.0627,275.5076,266.2013,255.5213,250.2769,244.5078,239.1659,236.6071,240.4745,223.6602,206.7409,180.366,182.1092,182.585,170.797,167.1487,172.7388,181.7204,193.3891,194.0882,189.248,191.8812,185.8587,194.1648,218.3392,229.6195,242.9884,242.8515,233.572,227.4529,235.1665,248.7902,269.0962,263.0833,264.63,266.3015,267.5145,269.7083,270.9828,268.3634,273.2405,287.9652,305.8134,289.009,278.7871,274.5672,278.5246,283.9913,288.2337,284.8813,278.8704,280.6967,197.8518,161.677,136.6172,130.7796,132.5486,135.0113,138.6128,145.1177,229.254,315.7612,310.4117,302.6058,299.3692,305.2723,379.6622,389.883,416.716,461.6416,539.5901,643.9357,781.4168,954.7282,1148.338,1290.846,1469.206,1637.401,1773.446,1894.746,2024.4,2121.76,2234.718,2320.302,2423.76,2483.874,2481.59,2483.537,2485.75,2483.976,2478.337,2476.153,2470.347,2467.091,2473.292,2469.92
492.0254,482.1455,493.4692,489.2625,482.1452,477.4384,467.3695,454.2142,450.7112,425.1777,417.9382,400.7216,398.0952,360.0481,355.8622,343.2526,329.5585,321.9442,314.0183,301.7807,297.4625,290.9054,277.3259,272.0529,266.8452,269.4622,273.0089,279.4841,279.2109,276.2605,272.8845,273.2012,271.7185,271.7717,253.7717,248.7056,247.7883,244.0229,245.9907,246.221,239.3425,204.5456,176.3681,171.7188,176.0294,174.4856,175.5708,164.9434,173.3264,182.7477,189.3417,188.1393,186.7285,186.2412,211.007,229.3265,243.8625,267.1582,269.5068,275.9386,266.8471,252.6981,256.8307,269.2857,292.143,277.526,271.0912,268.2761,272.2878,270.3998,269.832,269.6895,279.2859,298.0507,299.1168,288.0674,279.0927,276.4847,275.4784,278.0427,284.587,284.1248,287.6917,289.6037,274.1558,177.962,157.2296,142.1479,139.6915,138.2386,140.4643,143.5848,151.1246,321.8083,317.3508,308.7891,305.184,388.7114,391.0724,406.8327,447.8204,519.0685,628.2608,729.5337,897.7918,1076.484,1248.52,1395.438,1550.937,1754.903,1925.466,2091.776,2234.814,2364.689,2453.45,2480.9,2483.299,2493.97,2496.903,2497.333,2499.135,2492.334,2486.893,2485.572,2478.407,2471.118,2475.121,2477.731
581.9155,615.2752,618.8156,617.6078,609.3359,584.6673,568.1813,540.9446,528.7023,518.623,489.4272,458.1507,449.4438,423.9753,403.5765,367.1573,353.6335,337.0975,324.6234,312.3759,299.6149,291.6925,287.0818,281.729,279.2992,285.7779,302.9917,287.3363,276.3505,273.0516,272.0071,266.8892,266.6919,259.6389,245.3415,242.2747,244.2595,245.2938,247.1711,246.0096,238.2708,186.7016,161.5921,161.3936,167.6405,175.3383,187.8726,182.4241,180.4798,184.0755,188.1056,198.4249,212.2401,229.6382,236.6423,243.3284,251.4603,276.5708,303.1506,284.7651,282.3775,282.8192,273.2817,280.1094,294.8568,283.3456,273.591,273.7121,284.7746,293.1009,304.1057,320.3245,320.9501,326.8898,326.1894,301.1658,290.4884,288.7967,283.1512,284.1174,285.491,295.0755,294.1909,298.6605,311.0533,180.8151,152.8952,148.3131,144.1347,142.9127,143.5239,149.7597,147.9786,271.2628,322.5249,314.9407,312.915,392.8702,398.919,456.1519,507.6068,581.5821,690.3605,830.0468,1026.235,1192.854,1348.568,1516.006,1690.133,1867.35,2098.022,2270.882,2437.002,2471.994,2477.146,2487.34,2494.691,2499.559,2500,2500,2500,2500,2500,2500,2490.992,2484.072,2486.001,2484.295
744.7008,760.9767,769.1566,778.1837,771.4775,740.4136,711.5497,678.2123,664.8836,660.6837,638.9536,593.5468,561.9352,530.6401,459.9711,427.4567,387.6636,365.8944,343.9843,322.4233,308.1809,296.0886,285.5915,284.6758,290.2786,275.4975,269.9553,272.2059,281.3875,275.2375,271.0801,261.6799,257.9366,250.7701,240.5456,241.1891,243.7254,244.1796,238.9039,231.2226,211.7386,171.0004,155.3031,157.0275,163.7683,167.8484,196.3234,202.0955,211.7813,206.4957,218.7694,224.8735,233.4539,254.295,260.6245,267.2916,278.488,298.7116,311.065,297.5963,290.8134,293.9896,291.5876,290.0508,331.3836,326.0782,316.059,309.15,327.8441,337.7394,347.1129,356.8841,365.2325,386.2136,404.8215,378.3628,377.5087,371.6197,362.5602,302.4969,302.1655,301.1161,297.6847,304.7748,306.6492,233.82,146.8012,148.4583,146.0243,146.1302,146.9146,150.1115,153.2468,180.6962,324.1147,325.3248,320.6827,398.725,422.9191,472.6701,539.4955,650.9716,792.3685,955.6933,1114.45,1269.31,1419.046,1628.213,1825.584,2008.724,2242.221,2438.796,2475.74,2479.873,2486.07,2500,2500,2500,2500,2500,2500,2500,2500,2500,2500,2500,2497.176,2487.131
901.4493,959.7937,989.6688,1045.092,1022.857,1002.009,975.8913,931.7928,888.1524,869.2422,831.6522,799.3089,723.0588,672.7512,588.709,517.2584,442.1204,393.7784,361.2421,337.3708,316.6926,301.3206,288.495,284.4337,274.3324,259.8354,258.6783,261.9141,270.3495,280.3877,270.1992,255.8785,251.444,244.1134,237.7708,234.6715,229.9195,232.3557,229.6277,203.6446,202.3079,166.9558,160.9156,159.523,163.7281,168.6255,198.6219,212.7203,239.2363,247.5629,245.2411,246.9125,263.7366,274.9251,277.2539,282.0619,287.5347,293.9126,314.932,311.1113,307.1076,325.9672,352.2361,353.2075,355.1936,357.5686,344.9844,343.2539,350.479,371.5291,381.3866,400.4207,416.6061,444.2953,435.1701,445.2137,439.3838,426.57,404.7212,365.9201,345.4405,319.74,319.7166,304.9084,309.922,313.2975,147.3659,147.7782,147.4996,149.0105,151.6366,153.5222,157.2156,162.1505,286.633,328.8524,403.6118,403.6503,425.5063,488.6192,609.5956,712.7839,851.2667,1027.648,1196.047,1379.403,1550.768,1756.408,1960.959,2162.542,2434.709,2480.243,2491.376,2497.1,2500,2500,2500,2500,2500,2500,2500,2500,2500,2500,2500,2500,2500,2488.357
1161.116,1240.8,1294.817,1286.691,1288.015,1282.015,1253.874,1254.995,1223.619,1143.406,1098.705,1032.689,940.3829,852.5163,743.7637,629.5181,529.0911,459.4729,391.8018,355.8921,329.0988,309.09,293.6461,290.7232,272.3453,261.2365,256.9685,260.9156,271.4797,288.237,268.9435,248.7186,243.1286,239.1356,234.7457,229.2756,222.1218,197.0359,204.2719,201.8362,195.7229,174.3195,166.8572,165.443,164.1093,172.7328,200.9296,230.3424,269.6806,293.3986,264.4928,255.8851,258.0086,262.0082,271.1897,281.0412,286.9081,307.9831,335.3255,356.3845,382.2013,393.1893,391.1126,385.6622,377.6681,381.1544,400.9892,391.5902,404.0789,425.648,446.875,484.1997,510.7066,527.9257,533.1414,539.5601,547.7171,510.3207,475.8268,435.8185,391.2468,368.2036,336.3517,322.7738,324.0964,323.7053,202.4118,149.447,152.6066,153.1277,156.838,160.3848,163.1337,181.3441,238.4955,333.3673,400.4341,401.2751,430.6693,517.1124,633.8256,764.0151,919.326,1127.809,1289.922,1442.802,1605.835,1866.249,2129.85,2311.862,2482.778,2499.19,2500,2500,2500,2500,2500,2500,2500,2500,2500,2500,2500,2500,2500,2500,2500,2492.335
1453.666,1544.93,1563.159,1573.052,1557.545,1562.757,1552.987,1521.926,1520.57,1450.721,1380.152,1302.605,1255.403,1110.946,964.6292,789.5292,677.3351,556.5776,466.3528,397.3947,356.8167,329.9036,311.0666,292.6755,280.001,263.4825,262.8715,264.1411,274.4192,280.0208,265.843,244.636,234.0279,233.811,229.7162,218.0393,188.6209,188.8886,207.9579,207.959,196.9498,177.7727,172.8981,173.2327,176.1736,187.2291,225.8321,278.46,307.7258,289.0853,265.1859,255.6496,255.8922,259.2188,267.2688,287.3045,298.325,328.4441,401.5311,423.1934,429.0829,429.7252,435.5142,440.9582,425.9675,456.372,474.5219,488.2608,519.3739,566.7463,611.7918,654.2557,695.126,716.0316,701.5709,687.9935,694.5037,675.6177,584.5744,537.9807,464.2835,421.9833,383.6678,357.752,332.9891,335.107,307.8298,157.7868,159.4818,159.571,163.2068,169.5862,178.3672,187.0267,195.1636,322.5161,398.0433,401.5685,452.9657,516.9854,658.2233,811.178,1004.745,1177.52,1330.008,1524.126,1789.687,1980.568,2252.481,2475.731,2488.228,2500,2500,2500,2500,2500,2500,2500,2500,2500,2500,2500,2500,2500,2500,2500,2500,2500
1768.751,1808.954,1848.603,1882.098,1910.794,1891.827,1877.975,1844.524,1822.558,1758.775,1700.917,1560.548,1488.695,1341.146,1206.281,1019.648,864.4523,693.8417,573.0891,480.6039,422.58,368.7342,331.386,309.5987,296.6656,279.2064,273.0828,278.5015,292.833,280.8213,269.2286,235.6077,232.6747,226.8099,202.0624,190.3201,180.6482,185.726,203.06,206.6515,199.4391,182.0513,177.7226,182.4812,195.7637,223.623,280.4103,295.3922,290.2382,289.4363,268.7375,261.9805,259.8353,262.6157,272.9856,298.9699,359.4542,402.324,433.2104,462.6902,477.2192,498.165,506.6768,522.8212,565.4012,593.89,634.2143,710.0363,778.1879,863.622,955.4934,1026.349,1037.866,1083.771,1071.59,1003.698,914.9703,873.2036,763.4037,678.0049,581.931,491.8578,446.7104,411.2213,362.6175,347.7407,342.4032,215.4317,169.5663,166.969,171.9058,183.2341,190.2235,196.11,205.5854,278.8222,401.5287,415.3582,450.9865,526.9362,682.646,856.5842,1033.007,1191.18,1385.893,1640.902,1946.023,2182.325,2472.152,2485.515,2494.087,2500,2500,2500,2500,2500,2500,2500,2500,2500,2500,2500,2500,2500,2500,2500,2500,2500
2034.569,2097.81,2157.123,2222.595,2228.854,2229.745,2208.901,2204.322,2147.295,2059.766,1976.454,1837.766,1695.785,1555.731,1423.202,1274.281,1120.283,928.286,744.4819,621.6554,535.8506,453.4187,399.7967,338.3718,311.9534,294.3951,289.8143,281.8229,279.2746,280.2705,264.8167,230.8395,219.0838,209.4759,194.7145,183.2856,178.1203,180.0769,198.0114,205.267,205.4138,190.3437,185.4197,191.3131,209.7384,249.0798,282.6923,288.4207,276.3952,273.8635,276.9146,275.0859,275.3058,281.897,295.5936,357.4932,407.1947,422.9629,488.929,532.449,572.7809,614.3605,650.7863,682.582,859.322,942.9805,972.5594,1064.722,1097.488,1205.711,1313.894,1405.109,1482.348,1459.51,1440.391,1422.511,1285.901,1203.271,1075.026,863.9225,741.8427,619.442,546.4809,480.8976,433.5018,383.8901,364.2571,303.7179,189.3523,180.9974,190.5228,193.5977,199.0219,204.5642,211.5269,221.3318,377.1483,423.7401,462.8594,552.9273,712.777,869.0213,1040.526,1217.536,1439.959,1691.206,2046.84,2312.36,2500,2500,2496.277,2500,2500,2500,2500,2500,2500,2500,2500,2500,2500,2500,2500,2500,2500,2500,2500,2500
2307.688,2402.433,2453.935,2459.723,2459.723,2459.723,2459.723,2457.529,2457.529,2358.994,2250.834,2144.023,1952.107,1807.459,1630.135,1512.339,1331.384,1161.055,984.903,827.3929,670.6026,511.9818,417.981,351.8261,319.566,315.5501,286.7784,277.308,275.5201,275.7158,257.0662,221.006,212.8486,198.1371,186.2491,175.5755,168.3548,165.6888,189.6029,207.4009,209.4281,201.7058,201.3297,217.6272,250.8933,273.9269,284.9219,284.3426,271.5028,269.0099,273.4096,281.3795,296.1821,307.9863,360.8484,397.0803,423.3721,473.1418,541.1725,641.5157,723.4615,836.7188,1023.729,1101.87,1200.925,1276.706,1372.866,1394.588,1466.694,1583.335,1729.001,1829.469,1899.695,1867.224,1804.511,1752.469,1679.783,1514.839,1375.785,1171.396,990.1752,816.1257,688.2344,591.6223,531.3753,440.3935,413.3559,387.1546,244.7516,201.99,201.6143,203.3877,205.4281,208.3731,212.7053,231.6698,363.9959,425.0941,470.5225,581.3673,730.3187,884.5321,1045.607,1230.686,1459.055,1717.932,2064.854,2427.529,2500,2500,2500,2500,2500,2500,2500,2500,2500,2500,2500,2500,2500,2500,2500,2500,2500,2500,2500,2500
2459.723,2459.723,2459.723,2459.723,2459.723,2459.723,2459.723,2459.511,2459.511,2459.511,2459.511,2430.818,2232.7,2044.012,1880.855,1744.85,1553.54,1378.482,1214.028,1046.29,818.7054,605.8264,470.4603,385.1761,335.9295,313.8554,305.0759,280.591,274.636,270.3802,262.6809,216.9249,204.8159,180.2026,179.0896,142.9449,148.9778,152.8654,184.3685,209.1366,216.6975,218.3689,224.1618,271.1389,280.868,280.019,282.1107,285.3472,276.5495,272.1464,272.4532,278.3106,288.2443,341.8746,378.1271,432.5769,468.8935,536.2595,657.892,800.6406,1055.555,1205.864,1369.158,1486.908,1552.593,1599.092,1672.161,1753.422,1837.432,1966.862,2106.483,2187.803,2275.343,2283.539,2185.112,2057.9,1955.964,1766.611,1613.297,1452.6,1270.795,1110.081,927.7574,766.8606,650.8714,524.5554,465.5318,447.8027,336.8189,246.8581,213.8372,210.6386,209.0799,208.8248,213.2583,218.7307,316.3271,431.4412,481.3192,591.7901,757.2352,902.2765,1058.249,1244.533,1497.191,1724.109,2062.262,2362.643,2500,2500,2500,2500,2500,2500,2500,2500,2500,2500,2500,2500,2500,2500,2500,2500,2500,2500,2500,2500
2464.842,2459.723,2459.723,2459.723,2459.723,2459.723,2459.723,2459.511,2459.511,2459.511,2459.511,2476.673,2494.733,2340.519,2175.562,1964.449,1802.797,1608.377,1430.082,1211.873,993.9174,750.7979,558.7207,429.7502,368.2384,331.6774,331.3352,287.3691,275.6161,270.6183,260.7299,203.8995,175.5022,157.6299,133.6545,133.3366,133.9858,144.8248,185.9141,211.2332,222.6304,229.1704,267.748,279.6634,279.7479,279.0329,276.1917,279.2945,284.6245,277.7081,278.9278,285.9261,326.0732,360.2876,407.1498,462.7614,530.2899,647.6454,874.0813,1146.566,1363.8,1525.743,1709.377,1812.651,1876.3,1920.087,1979.576,2073.378,2165.571,2258.365,2440.08,2500,2500,2500,2499.712,2305.876,2138.42,1981.572,1804.716,1651.351,1518.148,1386.067,1199.558,1027.63,858.1415,707.6696,577.5612,523.8289,467.6617,322.595,251.183,219.1234,214.3449,210.5386,210.3696,217.1871,296.1893,440.1963,490.1034,587.4828,742.7709,910.0933,1077.86,1259.118,1488.817,1674.567,1875.763,2136.928,2430.845,2500,2500,2500,2500,2500,2500,2500,2500,2500,2500,2500,2500,2500,2500,2500,2500,2500,2500,2500
2477.977,2460.986,2459.723,2459.723,2459.723,2459.723,2459.596,2459.511,2459.511,2459.511,2459.511,2476.753,2493.42,2498.935,2442.251,2223.517,2011.793,1811.275,1616.24,1373.833,1158.664,935.0298,694.8688,520.7681,416.441,347.7079,348.2739,320.9341,280.6582,266.9543,245.8219,180.5641,127.2816,75.01864,90.6128,113.3682,123.8539,138.8373,174.8658,199.8282,247.0896,269.1026,275.682,278.1546,278.5298,275.0508,275.4108,276.9259,282.391,288.9324,292.921,319.1369,344.412,383.1144,427.7146,507.1107,628.1653,855.9471,1184.291,1415.442,1623.148,1838.844,2018.273,2153.585,2199.097,2305.887,2444.911,2480.316,2497.813,2500,2500,2500,2500,2500,2499.335,2499.335,2358.663,2183.78,2007.083,1861.097,1736.434,1633.299,1482.08,1280.873,1121.594,942.0887,721.033,619.5676,535.7007,398.2217,285.5898,256.3687,219.3947,210.1295,203.8875,207.9153,247.7046,380.9776,474.5623,565.3875,726.8926,904.6747,1071.628,1247.013,1463.943,1663.153,1847.403,2099.624,2463.588,2500,2500,2500,2500,2500,2500,2500,2500,2500,2500,2500,2500,2500,2500,2500,2500,2500,2500,2500
